ply
format ascii 1.0
element vertex 1285
property float x
property float y
property float z
property uchar red
property uchar green
property uchar blue
end_header
-33.0042 -29.497 18.3919 255 255 255
-33.0635 -29.3774 18.6128 255 255 255
-21.6813 -1.14161 -47.2224 255 255 255
-35.5624 -58.2743 -2.96071 255 255 255
-40.038 -31.0348 -33.7752 255 255 255
-41.4582 -44.3681 -38.3558 255 255 255
50.4111 61.5832 -6.85248 255 255 255
47.844 34.8584 -5.20315 255 255 255
33.8901 14.3607 -1.49385 255 255 255
36.5739 29.8183 -8.5289 255 255 255
36.532 26.8392 -8.2036 255 255 255
30.8956 -37.3037 2.13769 255 255 255
34.0717 -30.8921 -5.14216 255 255 255
17.0269 -13.1445 1.66726 255 255 255
48.1588 5.3141 -61.4291 255 255 255
19.5467 -40.6346 -50.9941 255 255 255
-19.5892 17.4572 15.8634 255 255 255
-6.49278 -9.60449 -47.5481 255 255 255
-11.6354 -9.19617 -45.3352 255 255 255
-11.6696 -9.12664 -45.0704 255 255 255
-27.8372 19.5593 18.2738 255 255 255
-29.2074 21.0026 17.7667 255 255 255
-35.4635 -28.845 19.1874 255 255 255
-34.7788 38.8391 -38.8924 255 255 255
-36.9839 33.2331 -38.4074 255 255 255
-45.6727 41.3326 20.8735 255 255 255
-46.7449 -46.2417 -40.837 255 255 255
47.0999 30.2061 -3.9859 255 255 255
46.5105 -21.4318 -0.18689 255 255 255
44.4683 56.5942 -5.36873 255 255 255
43.7457 56.0862 -4.16113 255 255 255
39.8836 39.4623 -3.42029 255 255 255
48.395 -38.8936 -57.5562 255 255 255
39.4861 -12.7349 -56.8314 255 255 255
33.8852 -42.4392 -52.6332 255 255 255
15.3613 -38.5506 -49.5488 255 255 255
-2.25009 -0.0291891 -46.2659 255 255 255
-4.53499 6.60473 -48.2203 255 255 255
-33.4233 18.0026 19.3515 255 255 255
-34.8922 16.8522 19.2749 255 255 255
-34.9259 16.8029 19.7647 255 255 255
46.4258 32.6438 -6.83657 255 255 255
43.9502 -29.5228 0.0788101 255 255 255
40.5256 13.2381 -2.45211 255 255 255
40.1927 13.2504 -2.03102 255 255 255
32.4839 -58.7544 9.35623 255 255 255
33.3856 34.7983 -8.34807 255 255 255
36.0584 -18.9871 -10.2691 255 255 255
22.693 -31.6856 6.26673 255 255 255
9.27022 15.6028 3.91874 255 255 255
42.7796 -46.6202 -61.2378 255 255 255
36.9031 -42.6056 -49.4342 255 255 255
14.6911 38.044 -54.998 255 255 255
-32.9194 -36.3435 -37.5307 255 255 255
-39.6711 -5.84281 -34.4876 255 255 255
-43.0257 -6.74062 -33.4721 255 255 255
41.9852 -46.1089 5.21512 255 255 255
38.2377 -56.4099 3.60178 255 255 255
30.8308 -57.459 3.69793 255 255 255
51.6851 -7.20697 -62.9666 255 255 255
44.2516 -10.7867 -59.2255 255 255 255
38.0391 -38.9065 -55.9128 255 255 255
36.1223 -7.65105 -55.3308 255 255 255
20.8573 42.6753 -55.8951 255 255 255
-37.7651 -11.2329 -36.1304 255 255 255
16.5638 29.2278 -17.0103 255 255 255
53.3003 -54.4995 -0.940049 255 255 255
46.2873 -37.9018 -0.871772 255 255 255
27.6397 -33.3293 -53.111 255 255 255
-1.33671 11.4696 9.2498 255 255 255
27.6627 -45.463 -62.8437 255 255 255
124.995 -24.3878 -88.6928 255 255 255
121.799 -5.80621 -87.702 255 255 255
117.541 -34.7723 -80.5026 255 255 255
119.253 27.3576 -87.1141 255 255 255
51.6717 7.20775 -5.42464 255 255 255
53.0399 6.71991 -7.31597 255 255 255
50.5276 50.6172 -7.87685 255 255 255
49.7277 29.1007 -5.79909 255 255 255
48.6598 22.5372 -3.96239 255 255 255
51.3437 10.9685 -7.12877 255 255 255
48.6947 51.2276 -5.99501 255 255 255
48.8956 -20.8907 -2.33908 255 255 255
48.042 1.65315 -2.8303 255 255 255
47.5135 38.9529 -4.86958 255 255 255
47.6757 39.7771 -5.26666 255 255 255
47.4929 1.52789 -3.25777 255 255 255
46.3409 8.7168 -2.28832 255 255 255
48.4178 -38.8028 -1.61902 255 255 255
47.6679 -22.9138 -2.34946 255 255 255
46.5737 33.6406 -4.72304 255 255 255
45.1942 28.0358 -3.01146 255 255 255
46.9762 -36.2198 -1.11881 255 255 255
44.8277 51.3421 -3.51055 255 255 255
46.9321 -42.2556 -1.52203 255 255 255
43.7446 32.3077 -3.31769 255 255 255
44.7907 36.8619 -5.1243 255 255 255
43.6321 54.4968 -4.32168 255 255 255
43.7737 -8.25569 -1.20543 255 255 255
43.7348 -35.1399 0.565202 255 255 255
43.1199 68.6867 -4.9196 255 255 255
43.3053 35.276 -3.73253 255 255 255
43.2915 12.8198 -2.92483 255 255 255
44.7078 27.9349 -5.91604 255 255 255
43.5283 -63.4243 2.59815 255 255 255
42.7037 12.9443 -2.69933 255 255 255
43.0906 3.78029 -2.4923 255 255 255
45.7583 -30.0943 -3.59552 255 255 255
42.5911 35.8388 -4.0415 255 255 255
43.0242 11.7466 -3.13108 255 255 255
42.1366 4.03397 -2.08773 255 255 255
42.8524 -30.4763 -0.642436 255 255 255
42.7815 -31.5746 -0.237514 255 255 255
43.2062 -35.3492 -0.591226 255 255 255
40.9189 64.7892 -4.31748 255 255 255
41.5556 -14.451 -0.765519 255 255 255
41.5615 23.8765 -3.19513 255 255 255
41.1029 4.43535 -1.71925 255 255 255
41.2379 9.15884 -2.35386 255 255 255
43.8558 15.0542 -6.45917 255 255 255
40.2724 54.3061 -3.5488 255 255 255
40.2724 54.3061 -3.5488 255 255 255
42.3696 47.5096 -6.20163 255 255 255
40.1195 19.7212 -1.62458 255 255 255
38.4633 46.2104 -1.19372 255 255 255
39.991 53.012 -4.06963 255 255 255
39.7345 30.6734 -3.26359 255 255 255
39.0374 57.431 -4.05362 255 255 255
37.043 69.2408 -1.75356 255 255 255
37.2094 19.0779 -0.243042 255 255 255
36.349 43.5993 -0.746768 255 255 255
37.6403 46.0559 -2.92517 255 255 255
37.0813 -10.9265 1.11976 255 255 255
36.8113 -6.49996 1.1198 255 255 255
37.1304 -37.0682 2.68295 255 255 255
37.246 -33.3756 1.91998 255 255 255
37.7427 7.73719 -2.60581 255 255 255
37.7953 -0.61948 -2.23832 255 255 255
38.4074 6.03993 -3.47967 255 255 255
35.5618 20.5146 -0.340797 255 255 255
36.3024 39.7886 -2.81289 255 255 255
36.3721 48.5119 -4.28108 255 255 255
35.8839 64.684 -4.61298 255 255 255
36.0289 -14.7337 -0.16133 255 255 255
34.0248 -8.31881 2.3053 255 255 255
35.927 -14.4159 -0.31767 255 255 255
34.0649 16.8425 0.105106 255 255 255
33.8019 -35.3397 3.29995 255 255 255
36.8201 -1.38371 -6.18169 255 255 255
33.8846 -30.5317 0.779828 255 255 255
31.6403 -11.9283 1.44099 255 255 255
36.5836 25.8305 -9.03824 255 255 255
31.8684 -12.2313 0.786816 255 255 255
36.5758 31.3199 -9.45779 255 255 255
31.2963 39.9981 -2.39547 255 255 255
32.0468 -6.41041 -0.0763903 255 255 255
75.4231 12.5134 -71.8726 255 255 255
72.9211 12.153 -68.7667 255 255 255
32.6349 37.9645 -6.03773 255 255 255
45.0651 64.067 -27.4205 255 255 255
31.2396 38.1143 -4.04013 255 255 255
74.3617 9.22644 -71.3417 255 255 255
74.6961 7.62753 -71.6754 255 255 255
30.019 13.8501 -1.20412 255 255 255
30.3079 38.663 -3.32165 255 255 255
29.0435 -59.3614 5.79795 255 255 255
30.534 39.1112 -4.49432 255 255 255
27.7213 66.8476 -1.58354 255 255 255
70.7853 11.7939 -70.7753 255 255 255
25.7075 69.0049 -0.266509 255 255 255
26.0251 -6.66292 3.41703 255 255 255
26.5966 -7.89083 2.48426 255 255 255
26.841 15.3617 -0.216495 255 255 255
26.5074 -10.4286 2.08635 255 255 255
69.4853 14.3514 -71.3986 255 255 255
26.1187 -31.9779 4.47025 255 255 255
42.6641 65.7984 -30.4064 255 255 255
25.3411 14.2348 0.371723 255 255 255
58.3219 3.51485 -57.2641 255 255 255
24.6462 14.1845 -2.51095 255 255 255
42.7539 65.7069 -38.0467 255 255 255
49.8233 65.7464 -50.9863 255 255 255
23.1905 15.9701 -1.91836 255 255 255
22.5572 -55.6653 5.03214 255 255 255
42.4133 66.9102 -41.3779 255 255 255
17.529 19.6221 4.44547 255 255 255
17.2554 18.3944 5.34507 255 255 255
41.1493 -58.4457 -31.4753 255 255 255
17.948 20.0184 1.35755 255 255 255
32.4532 -58.4126 -19.0883 255 255 255
15.0997 19.9816 5.53118 255 255 255
14.9818 19.8391 5.2476 255 255 255
16.1719 19.9973 3.11238 255 255 255
16.5627 20.4533 2.3308 255 255 255
14.782 45.2288 3.77064 255 255 255
15.2714 20.5806 4.47623 255 255 255
15.7312 14.3003 3.72083 255 255 255
16.2813 14.8108 2.51577 255 255 255
14.226 19.2704 5.72595 255 255 255
30.4333 65.5211 -28.3951 255 255 255
15.3112 -35.7067 7.77934 255 255 255
14.5769 -54.2633 11.0142 255 255 255
13.3923 45.7034 4.53484 255 255 255
13.4825 45.0364 4.39729 255 255 255
15.4052 47.6579 0.444321 255 255 255
13.4031 41.1617 3.90545 255 255 255
15.2614 -30.9156 5.69443 255 255 255
13.1779 41.7477 3.82916 255 255 255
52.5071 -26.4406 -69.3269 255 255 255
49.4041 -26.7403 -63.2232 255 255 255
45.9594 13.5741 -60.3422 255 255 255
45.3318 43.454 -61.6951 255 255 255
10.9734 45.513 4.92031 255 255 255
43.7854 45.5172 -59.9147 255 255 255
48.0712 -29.0267 -62.3787 255 255 255
45.5033 5.94682 -60.9736 255 255 255
45.321 3.46573 -61.1165 255 255 255
45.3113 3.45322 -60.9462 255 255 255
25.7402 66.1637 -27.2903 255 255 255
27.9514 -55.9698 -22.073 255 255 255
44.2109 34.2746 -62.6016 255 255 255
45.0726 -25.8646 -60.2941 255 255 255
44.4592 46.8118 -65.1365 255 255 255
44.5783 -25.5362 -59.9901 255 255 255
44.4761 -26.3307 -59.7424 255 255 255
44.412 -29.035 -59.5324 255 255 255
44.3421 -31.0661 -59.3418 255 255 255
43.9498 53.3665 -66.2046 255 255 255
42.2903 35.8022 -62.5322 255 255 255
23.4333 63.9654 -27.2717 255 255 255
6.73041 45.2664 6.6991 255 255 255
2.49726 42.2086 15.5206 255 255 255
38.399 -44.5559 -58.126 255 255 255
22.0795 -57.7516 -21.96 255 255 255
35.5881 41.5863 -60.3145 255 255 255
3.83573 45.4342 7.24674 255 255 255
3.55668 41.3998 6.95916 255 255 255
32.2451 52.9306 -58.3515 255 255 255
15.1492 68.0187 -22.5798 255 255 255
2.73799 21.9159 6.71172 255 255 255
30.6462 9.32764 -55.9043 255 255 255
27.4726 13.8762 -51.5785 255 255 255
28.6071 -7.62435 -53.045 255 255 255
29.3034 -26.6334 -53.5615 255 255 255
12.3728 66.1085 -23.0519 255 255 255
27.1141 45.6812 -56.3017 255 255 255
25.358 47.7859 -52.5373 255 255 255
27.9505 -4.56815 -54.7803 255 255 255
10.693 66.6467 -21.9125 255 255 255
7.42575 67.3168 -16.9781 255 255 255
11.6674 -61.2095 -19.0649 255 255 255
21.4386 40.0697 -55.6896 255 255 255
21.7317 15.628 -54.5197 255 255 255
17.1268 70.5189 -50.5762 255 255 255
21.7859 9.84676 -58.7731 255 255 255
20.8346 -40.1892 -51.9416 255 255 255
20.0719 49.1395 -59.7801 255 255 255
19.742 5.97157 -55.1047 255 255 255
19.6457 9.22819 -55.8229 255 255 255
17.5739 42.4966 -53.9928 255 255 255
17.8069 15.1983 -52.503 255 255 255
17.8952 36.7739 -55.7237 255 255 255
16.4202 0.213794 -53.1393 255 255 255
16.4094 -31.642 -50.3868 255 255 255
15.5841 34.5076 -56.6674 255 255 255
15.5335 34.5067 -56.0147 255 255 255
13.957 -38.2301 -47.4962 255 255 255
13.313 44.4579 -53.9528 255 255 255
13.1697 41.3972 -53.6616 255 255 255
14.8489 -38.8908 -50.3737 255 255 255
-9.19343 -10.1701 13.5906 255 255 255
-9.98044 16.6309 12.5212 255 255 255
12.1129 53.1679 -53.4977 255 255 255
14.3691 -34.1022 -51.4058 255 255 255
13.3959 7.31614 -53.5494 255 255 255
9.35783 70.048 -48.5602 255 255 255
13.8074 46.9491 -59.28 255 255 255
12.4868 -6.11644 -52.5223 255 255 255
10.5162 -39.9606 -43.764 255 255 255
11.7472 -34.4937 -49.2344 255 255 255
11.7472 -34.4937 -49.2344 255 255 255
-12.2926 -8.33952 14.8371 255 255 255
9.18263 34.575 -54.5008 255 255 255
7.06983 1.6312 -49.4395 255 255 255
-6.04778 62.4123 -16.2819 255 255 255
5.57305 -0.699867 -48.5525 255 255 255
2.9054 2.71744 -48.8336 255 255 255
2.27216 12.7032 -48.395 255 255 255
2.64832 2.34269 -48.6312 255 255 255
2.70217 -7.79052 -47.9132 255 255 255
1.76069 45.0077 -50.795 255 255 255
-18.3468 39.4961 9.39832 255 255 255
-1.15108 -3.23836 -46.307 255 255 255
-18.7419 40.2288 10.142 255 255 255
-20.0419 40.8559 13.0402 255 255 255
-20.455 16.2032 15.8341 255 255 255
-3.06787 10.0958 -48.1835 255 255 255
-20.8245 40.4384 13.1168 255 255 255
-21.9121 15.8482 16.0828 255 255 255
-22.0634 15.8725 15.7359 255 255 255
-23.3803 40.3069 16.2803 255 255 255
-22.5515 -5.79813 17.2732 255 255 255
-17.2109 65.6652 -14.8575 255 255 255
-7.39398 -2.17192 -45.137 255 255 255
-8.1453 7.38155 -46.0596 255 255 255
-9.68275 -41.7103 -34.6887 255 255 255
-18.9849 72.7784 -14.9701 255 255 255
-25.2125 41.3259 14.7785 255 255 255
-23.7477 -12.1899 16.3919 255 255 255
-24.6811 -9.37195 18.0733 255 255 255
-24.9651 16.8718 15.0044 255 255 255
-11.1349 -6.78221 -40.7858 255 255 255
-26.721 -32.9989 24.1931 255 255 255
-27.1216 19.6417 18.056 255 255 255
-28.014 18.0203 18.2489 255 255 255
-28.2985 39.9667 14.0191 255 255 255
-28.8663 17.0263 17.8842 255 255 255
-29.1684 16.957 18.0761 255 255 255
-30.3415 41.9009 17.3592 255 255 255
-30.3415 41.9009 17.3592 255 255 255
-29.7946 40.1188 14.719 255 255 255
-30.2607 40.6022 16.052 255 255 255
-30.4228 40.5668 15.8096 255 255 255
-31.0877 40.8842 16.1885 255 255 255
-17.774 -38.363 -40.9372 255 255 255
-30.5276 -11.3686 19.4942 255 255 255
-30.9827 -9.85781 20.3001 255 255 255
-31.3545 -34.5049 22.1463 255 255 255
-32.2063 -9.4552 22.8466 255 255 255
-32.2674 -33.3776 26.1199 255 255 255
-22.5081 10.6171 -41.0778 255 255 255
-24.6449 47.6022 -40.2124 255 255 255
-34.3053 40.6613 15.3708 255 255 255
-33.9138 -5.60785 20.7861 255 255 255
-24.9174 -6.68375 -39.1228 255 255 255
-26.1885 -4.66176 -33.6762 255 255 255
-26.353 14.3099 -40.7504 255 255 255
-25.1317 -35.1052 -39.1024 255 255 255
-36.3088 42.4095 18.3525 255 255 255
-35.8864 17.9052 20.3907 255 255 255
-35.9883 16.9155 20.2692 255 255 255
-35.9475 16.9664 20.1062 255 255 255
-35.9555 -33.1984 28.1198 255 255 255
-36.7813 40.2578 16.4719 255 255 255
-36.4685 40.7973 14.0459 255 255 255
-37.152 22.2778 18.3454 255 255 255
-36.778 -9.20427 22.1167 255 255 255
-37.9811 39.5063 16.6222 255 255 255
-37.1568 -8.98981 22.4731 255 255 255
-37.5545 15.6735 19.2526 255 255 255
-38.0687 18.9555 21.1612 255 255 255
-38.1502 -32.6548 28.3764 255 255 255
-30.9835 -6.4607 -37.1898 255 255 255
-31.4762 -5.19701 -37.8753 255 255 255
-32.447 -6.46667 -36.8077 255 255 255
-36.0132 46.6913 -24.9603 255 255 255
-33.0151 -5.09985 -37.2441 255 255 255
-32.4108 -40.1322 -38.1323 255 255 255
-40.2788 17.7032 21.901 255 255 255
-33.1811 -5.25875 -38.9947 255 255 255
-33.4551 -5.10436 -37.3007 255 255 255
-40.9349 40.8817 19.1341 255 255 255
-33.9664 51.3811 -51.1294 255 255 255
-35.1005 41.9672 -38.3571 255 255 255
-35.0475 42.1243 -38.7408 255 255 255
-35.9403 45.9049 -34.0985 255 255 255
-33.175 -37.676 -37.5348 255 255 255
-40.8456 18.8296 22.1147 255 255 255
-35.4768 38.3914 -38.4066 255 255 255
-41.4064 22.1071 21.4673 255 255 255
-34.6726 -28.3488 -37.3753 255 255 255
-35.3066 -37.3958 -35.3756 255 255 255
-42.7595 18.8358 22.8675 255 255 255
-37.0285 -5.19607 -37.7309 255 255 255
-39.0577 -56.3581 -6.90919 255 255 255
-44.2991 39.5176 19.7701 255 255 255
-44.2968 40.5859 17.4756 255 255 255
-45.0589 40.5372 19.6312 255 255 255
-41.0449 37.2567 -39.8765 255 255 255
-43.8384 -10.5775 23.7892 255 255 255
-41.7727 44.1492 -35.7668 255 255 255
-43.9763 -4.5499 21.7166 255 255 255
-39.9652 -23.913 -34.4574 255 255 255
-40.803 6.17746 -34.7182 255 255 255
-40.9157 6.8441 -34.5458 255 255 255
-40.728 0.571571 -34.4169 255 255 255
-40.7113 -28.736 -30.3804 255 255 255
-41.7286 12.8264 -34.9396 255 255 255
-40.7742 -32.7807 -33.2849 255 255 255
-41.6478 -2.36035 -34.533 255 255 255
-44.809 -30.7854 22.4999 255 255 255
-43.5657 7.55947 -29.2347 255 255 255
-42.5724 -33.3974 -38.0154 255 255 255
-43.9078 7.0938 -35.1962 255 255 255
-44.4991 6.80122 -30.4525 255 255 255
-47.0514 15.6276 22.5201 255 255 255
-44.4894 4.74305 -35.0892 255 255 255
-46.1072 13.4045 -28.8908 255 255 255
-46.0973 9.80911 -31.2282 255 255 255
-46.069 8.46989 -33.6329 255 255 255
-48.0832 49.9922 -32.3816 255 255 255
-48.4121 17.6949 24.3248 255 255 255
-49.6541 45.1968 23.0797 255 255 255
-48.0864 47.4537 -41.0445 255 255 255
-46.3073 -32.6658 -27.0684 255 255 255
-48.7902 17.8591 24.1301 255 255 255
-48.6964 46.0405 -33.0982 255 255 255
-46.8407 -36.6241 -26.4276 255 255 255
-49.6172 51.9761 -30.8829 255 255 255
-49.0671 42.7188 -35.0884 255 255 255
-50.503 40.6286 16.5367 255 255 255
-50.0937 46.0557 -29.2681 255 255 255
-50.3156 41.9836 -29.3248 255 255 255
51.2125 22.1951 -6.04893 255 255 255
50.5626 14.525 -5.01112 255 255 255
50.5335 5.31879 -4.5139 255 255 255
50.0003 8.09023 -4.10696 255 255 255
49.5786 8.06523 -3.44188 255 255 255
50.1789 -3.07468 -3.74893 255 255 255
49.4455 8.91006 -4.02745 255 255 255
49.3001 46.5146 -5.85435 255 255 255
49.6685 -24.2961 -2.29481 255 255 255
49.7566 19.7019 -5.19786 255 255 255
48.6561 20.1853 -4.36253 255 255 255
49.0753 -24.68 -2.25067 255 255 255
49.6124 56.0065 -7.47533 255 255 255
48.4181 48.0539 -5.73533 255 255 255
49.4183 -32.7781 -1.9992 255 255 255
49.0086 -34.966 -1.15812 255 255 255
48.5456 -2.78917 -3.49389 255 255 255
49.3999 36.4994 -6.87013 255 255 255
49.2183 38.7694 -6.93915 255 255 255
47.4031 18.4996 -3.8407 255 255 255
47.9566 -35.4617 -1.19356 255 255 255
46.592 12.328 -3.2148 255 255 255
45.2341 23.1444 -2.39927 255 255 255
43.6125 -35.9911 3.82784 255 255 255
46.5272 -32.5755 -1.0743 255 255 255
43.6807 22.5062 -1.96274 255 255 255
43.2689 26.2729 -2.14722 255 255 255
44.9185 -35.3082 -0.00602563 255 255 255
45.2195 -35.4738 -0.406933 255 255 255
43.8951 68.8306 -4.95029 255 255 255
43.9067 68.8383 -4.96314 255 255 255
44.9063 -34.7424 0.1772 255 255 255
46.1597 -9.4366 -4.01637 255 255 255
45.4527 27.6789 -5.65459 255 255 255
44.9179 35.0818 -5.50643 255 255 255
43.3644 -8.00991 -1.35251 255 255 255
43.3443 38.7162 -4.31753 255 255 255
43.31 34.9066 -4.0456 255 255 255
42.988 32.3836 -3.67012 255 255 255
43.2863 15.4744 -3.34621 255 255 255
42.3767 71.3007 -5.24246 255 255 255
42.3392 21.6955 -3.23765 255 255 255
43.511 49.457 -6.07115 255 255 255
42.1565 48.9301 -4.60479 255 255 255
41.5171 20.8796 -2.2298 255 255 255
41.8562 15.8317 -2.51939 255 255 255
41.8624 22.707 -3.13677 255 255 255
42.321 -33.2063 0.165075 255 255 255
41.4767 -47.2015 2.18427 255 255 255
40.3485 48.0497 -2.92478 255 255 255
40.1107 43.2563 -2.37751 255 255 255
41.6162 -2.59691 -1.99018 255 255 255
49.9071 -32.4124 -12.0041 255 255 255
41.1637 -5.13843 -1.52436 255 255 255
41.1772 -2.50272 -2.1374 255 255 255
39.944 65.6815 -4.22549 255 255 255
38.0615 39.4232 -1.27749 255 255 255
39.1373 39.9141 -2.93159 255 255 255
39.0029 35.2189 -2.83846 255 255 255
37.7038 38.8267 -1.37674 255 255 255
37.7126 19.5018 -0.48521 255 255 255
40.2645 53.6327 -6.2094 255 255 255
37.495 36.6797 -1.73531 255 255 255
37.213 19.8177 -0.504858 255 255 255
37.1612 15.4196 -0.301896 255 255 255
38.2886 10.4093 -1.54339 255 255 255
38.3268 8.11099 -1.79812 255 255 255
37.9159 12.6399 -1.84841 255 255 255
36.093 45.9465 -1.12972 255 255 255
36.0569 45.87 -1.10993 255 255 255
37.995 39.8472 -3.60474 255 255 255
38.181 -22.993 0.210514 255 255 255
38.3816 4.80327 -2.47108 255 255 255
36.1529 -11.0115 1.13584 255 255 255
35.4803 47.3716 -1.72217 255 255 255
37.4977 -2.67214 -2.31378 255 255 255
36.4144 -61.2979 4.68867 255 255 255
37.0936 -29.3562 0.473433 255 255 255
35.9091 -36.6819 2.76885 255 255 255
35.7303 -5.72184 0.15749 255 255 255
36.845 38.0788 -5.53258 255 255 255
37.3992 -18.5282 -2.66033 255 255 255
31.5871 17.4698 1.14376 255 255 255
30.5113 42.615 1.11771 255 255 255
36.7897 11.9367 -6.69635 255 255 255
36.7162 0.851775 -5.85011 255 255 255
36.5727 -0.0490809 -5.95123 255 255 255
34.1987 -39.7038 1.01578 255 255 255
31.8892 41.1043 -1.52388 255 255 255
31.801 41.0963 -1.43946 255 255 255
31.9125 40.165 -2.20194 255 255 255
32.3316 65.5404 -4.3246 255 255 255
32.6204 13.459 -2.4061 255 255 255
31.7213 -31.7011 2.92098 255 255 255
31.6088 14.3139 -1.06706 255 255 255
76.3154 10.3905 -72.1775 255 255 255
25.5127 44.6338 5.99254 255 255 255
31.5983 -57.4845 4.49296 255 255 255
35.2391 -17.0598 -5.93959 255 255 255
31.1753 -30.8931 1.45844 255 255 255
29.8289 66.1232 -3.10834 255 255 255
37.4608 -40.1641 -8.08363 255 255 255
74.6099 13.0218 -71.999 255 255 255
74.0397 11.7759 -71.4748 255 255 255
78.2391 -34.0548 -76.0001 255 255 255
26.842 44.7744 1.00195 255 255 255
71.736 11.7768 -70.9395 255 255 255
28.0461 40.5911 -1.51312 255 255 255
27.1572 19.5706 1.21151 255 255 255
27.7941 14.5495 -0.440593 255 255 255
40.6999 63.6454 -24.477 255 255 255
27.1932 20.0929 0.46463 255 255 255
27.6434 17.8266 -1.26527 255 255 255
29.2433 -56.3416 2.25404 255 255 255
26.5019 -33.044 3.69415 255 255 255
26.7045 65.2789 -3.54219 255 255 255
46.4639 66.2139 -36.7307 255 255 255
38.4877 64.3767 -23.5226 255 255 255
27.3666 -13.6041 -0.461814 255 255 255
25.4036 65.3025 -2.29085 255 255 255
25.278 15.8844 0.521539 255 255 255
28.5152 39.14 -6.73047 255 255 255
41.1889 64.9592 -30.7152 255 255 255
22.4671 17.7761 3.4151 255 255 255
35.1711 68.5578 -21.4348 255 255 255
26.6539 -57.3725 0.818067 255 255 255
22.0626 15.3524 2.12867 255 255 255
23.7475 40.0033 -3.57729 255 255 255
22.9964 -55.491 5.58184 255 255 255
21.3361 -59.3315 8.63427 255 255 255
20.6442 16.3777 2.45021 255 255 255
19.3447 20.3625 3.31984 255 255 255
45.6661 -58.936 -37.3445 255 255 255
57.9982 7.34814 -68.0956 255 255 255
33.6702 66.6294 -28.4121 255 255 255
44.1042 66.0145 -47.5014 255 255 255
54.8751 13.3077 -65.9627 255 255 255
52.2539 39.161 -63.0565 255 255 255
32.8934 -57.3787 -19.4876 255 255 255
39.784 65.8197 -42.0508 255 255 255
53.0207 11.2065 -63.8966 255 255 255
16.1927 41.1962 2.13483 255 255 255
15.5513 -8.55369 5.96829 255 255 255
14.7025 -11.6798 7.54742 255 255 255
15.362 -7.42128 6.08827 255 255 255
29.9622 63.8898 -26.6233 255 255 255
14.7336 -6.68458 6.77652 255 255 255
14.1934 18.9716 5.55873 255 255 255
17.2474 -32.2631 3.90077 255 255 255
14.5668 15.2746 4.5535 255 255 255
50.117 13.3482 -63.837 255 255 255
16.1101 -31.9473 4.57766 255 255 255
15.0081 14.2092 2.60989 255 255 255
50.0416 13.9439 -64.4026 255 255 255
49.796 38.5842 -66.4649 255 255 255
48.8392 35.9573 -65.0853 255 255 255
11.8351 44.5269 5.61205 255 255 255
46.7319 12.1734 -61.0738 255 255 255
25.6802 61.8281 -23.97 255 255 255
11.7146 -8.62659 8.27802 255 255 255
45.0298 40.8799 -61.1237 255 255 255
25.6716 62.3265 -25.0887 255 255 255
27.8663 -62.6989 -19.3809 255 255 255
44.7516 0.410855 -59.5834 255 255 255
45.6 -8.31558 -60.5113 255 255 255
28.4791 -57.0877 -22.1656 255 255 255
45.8474 -29.5326 -60.0287 255 255 255
42.8508 -61.353 -51.0917 255 255 255
45.1125 -41.4367 -57.9403 255 255 255
41.9585 40.0788 -60.5687 255 255 255
44.2668 -33.8877 -59.2745 255 255 255
46.0154 10.0088 -67.9329 255 255 255
25.599 66.262 -32.6062 255 255 255
22.3365 62.8554 -26.1297 255 255 255
24.896 64.6243 -31.3215 255 255 255
23.1889 -57.5545 -17.7068 255 255 255
22.5748 63.5457 -28.3747 255 255 255
6.96555 -9.69256 9.31637 255 255 255
39.3904 -27.1584 -57.9741 255 255 255
20.3933 63.6197 -27.8368 255 255 255
4.80737 44.0932 6.97674 255 255 255
4.36374 44.363 6.54426 255 255 255
34.6394 -40.2862 -53.1611 255 255 255
31.5644 42.5548 -54.083 255 255 255
31.808 -33.1099 -48.6741 255 255 255
34.751 6.33507 -59.1371 255 255 255
37.8891 -33.219 -62.7707 255 255 255
3.19706 -6.83063 10.6613 255 255 255
31.4766 10.0113 -54.8362 255 255 255
31.098 -6.59157 -52.7205 255 255 255
30.3805 3.42591 -52.4967 255 255 255
15.4067 69.5015 -24.6134 255 255 255
29.0348 51.8679 -54.8796 255 255 255
29.6232 48.8593 -56.0216 255 255 255
29.2972 39.7753 -54.7968 255 255 255
28.8788 40.3364 -55.0519 255 255 255
30.4319 -29.8784 -52.5416 255 255 255
28.1468 50.2079 -54.932 255 255 255
29.5119 -40.0116 -50.9015 255 255 255
27.8334 -7.76836 -52.3447 255 255 255
-0.872135 -9.32289 11.951 255 255 255
23.9068 38.6851 -53.948 255 255 255
8.02689 68.0768 -20.2704 255 255 255
8.35347 66.3567 -21.2743 255 255 255
8.35347 66.3567 -21.2743 255 255 255
-3.55527 16.8498 10.7234 255 255 255
8.52683 64.926 -23.6492 255 255 255
7.34141 66.0775 -21.9622 255 255 255
-4.75209 41.8052 9.38603 255 255 255
-4.82365 41.5234 9.77502 255 255 255
-5.2247 16.7753 11.3482 255 255 255
21.07 -2.16947 -54.9288 255 255 255
19.3542 45.5887 -55.4522 255 255 255
19.986 51.5311 -59.9594 255 255 255
18.3559 45.5791 -55.2327 255 255 255
-2.48491 57.5781 -2.43674 255 255 255
17.9176 44.5809 -54.4473 255 255 255
18.2585 46.8709 -56.9538 255 255 255
19.2536 8.02689 -56.0443 255 255 255
17.4218 15.49 -52.877 255 255 255
17.4294 14.7539 -52.6326 255 255 255
18.0084 13.9285 -54.3749 255 255 255
18.0084 13.9285 -54.3749 255 255 255
16.8397 35.9785 -54.1755 255 255 255
18.3646 51.8397 -60.2082 255 255 255
18.0999 -36.3744 -50.901 255 255 255
18.3014 53.4417 -60.3468 255 255 255
18.2471 53.3467 -60.4135 255 255 255
18.1893 50.8837 -59.7269 255 255 255
17.4146 49.7076 -57.5787 255 255 255
17.8224 4.87762 -54.7116 255 255 255
20.8923 -32.1164 -59.1989 255 255 255
20.8923 -32.1164 -59.1989 255 255 255
19.3944 -38.0411 -54.5168 255 255 255
1.73202 68.3982 -19.027 255 255 255
16.5605 54.3643 -58.8759 255 255 255
16.0818 9.29091 -52.7019 255 255 255
16.9237 7.82104 -54.9523 255 255 255
16.8664 -3.53575 -53.9878 255 255 255
16.2956 -5.30526 -54.3755 255 255 255
16.0078 -24.2722 -52.5154 255 255 255
16.0203 -40.1818 -50.1494 255 255 255
13.489 42.0902 -53.3956 255 255 255
13.7395 40.0032 -54.0829 255 255 255
-9.97731 41.7254 10.8621 255 255 255
11.5668 -40.0896 -44.7843 255 255 255
12.6786 6.59284 -53.2769 255 255 255
11.1732 50.588 -54.6981 255 255 255
11.9961 49.4029 -57.2968 255 255 255
-11.8003 40.6829 10.3336 255 255 255
9.92198 3.64679 -51.3024 255 255 255
-13.5342 17.2308 13.7534 255 255 255
-10.3912 57.5494 -0.824329 255 255 255
-13.0386 15.4026 10.3568 255 255 255
-6.89813 62.6856 -16.4194 255 255 255
6.72895 34.9602 -56.2846 255 255 255
5.05509 8.51542 -49.5307 255 255 255
-15.9152 15.9203 16.1939 255 255 255
-15.9152 15.9203 16.1939 255 255 255
4.96228 5.92427 -49.2758 255 255 255
-16.3238 17.9298 14.8893 255 255 255
2.49728 -62.2064 -42.5944 255 255 255
0.702638 14.647 -47.7901 255 255 255
-17.8561 16.7283 14.7162 255 255 255
1.67262 4.2634 -50.2737 255 255 255
-17.3577 -36.4618 17.4172 255 255 255
-0.452465 -7.00598 -45.9764 255 255 255
-0.870399 2.72559 -47.0002 255 255 255
-0.533569 0.437696 -47.8802 255 255 255
-11.6704 66.0131 -17.4191 255 255 255
-2.2139 13.795 -48.2129 255 255 255
-1.03593 -27.9361 -48.7651 255 255 255
-19.911 -7.79713 17.0148 255 255 255
-2.40492 6.248 -49.3994 255 255 255
-1.89393 -41.2889 -45.9806 255 255 255
-20.8625 18.0503 16.1177 255 255 255
-5.53793 53.476 -52.778 255 255 255
-15.1131 -59.1972 -5.31323 255 255 255
-8.81729 41.2761 -47.6778 255 255 255
-18.7569 63.1343 -11.2478 255 255 255
-9.17299 4.63847 -46.6197 255 255 255
-14.819 -1.39343 -22.8585 255 255 255
-9.5082 6.76024 -47.3236 255 255 255
-25.5951 18.074 17.528 255 255 255
-24.6796 -36.0361 20.5309 255 255 255
-10.6571 10.7902 -46.7746 255 255 255
-26.0348 41.3552 14.5522 255 255 255
-25.8933 -7.98401 19.031 255 255 255
-27.3177 40.9181 15.1027 255 255 255
-26.9453 22.3831 14.9667 255 255 255
-27.8098 17.6143 18.1802 255 255 255
-27.1034 -10.4012 19.3644 255 255 255
-28.5056 21.6898 17.4818 255 255 255
-28.5676 21.698 17.6832 255 255 255
-29.4664 40.2213 14.0681 255 255 255
-29.5434 40.1605 14.3645 255 255 255
-30.4462 46.4998 17.5825 255 255 255
-17.3797 10.3443 -44.1823 255 255 255
-28.815 -34.3341 20.9696 255 255 255
-28.8811 -34.7096 20.7026 255 255 255
-29.8525 16.784 18.0983 255 255 255
-30.2523 21.1358 18.6182 255 255 255
-30.4043 19.7458 19.4253 255 255 255
-18.9866 -5.05136 -41.6547 255 255 255
-30.9612 16.0253 18.3116 255 255 255
-31.7587 18.9085 19.4313 255 255 255
-25.0794 -58.0236 -7.85323 255 255 255
-33.0799 47.1051 17.9094 255 255 255
-31.0473 -36.1976 20.9866 255 255 255
-31.4107 -33.8662 22.059 255 255 255
-32.8078 -8.88878 21.0846 255 255 255
-23.5798 15.1792 -40.5155 255 255 255
-33.8814 40.5517 16.2912 255 255 255
-33.4386 16.2675 18.7841 255 255 255
-33.3844 -10.6265 20.7954 255 255 255
-34.2846 40.2502 15.6168 255 255 255
-34.004 19.2042 18.2977 255 255 255
-34.3287 40.0597 14.7941 255 255 255
-33.5499 -35.1904 23.3089 255 255 255
-34.598 42.5752 14.581 255 255 255
-34.8145 39.5993 16.6568 255 255 255
-33.3379 -11.2281 17.2627 255 255 255
-33.6513 -35.8835 22.6295 255 255 255
-35.6644 18.1155 20.3943 255 255 255
-24.4864 -33.1663 -47.5822 255 255 255
-36.4499 45.2938 16.5287 255 255 255
-26.399 -5.64016 -40.4359 255 255 255
-27.6341 -5.00732 -33.5107 255 255 255
-36.5888 19.7926 20.8476 255 255 255
-36.5094 15.9746 19.823 255 255 255
-36.4786 16.0423 19.3934 255 255 255
-36.8153 18.1834 20.8128 255 255 255
-37.4248 17.31 24.5672 255 255 255
-28.9003 12.2715 -39.0124 255 255 255
-28.1952 -6.48193 -40.6069 255 255 255
-37.3562 16.675 21.295 255 255 255
-37.5562 -9.343 22.5923 255 255 255
-37.3599 -11.8708 20.4954 255 255 255
-39.8348 47.1539 21.5837 255 255 255
-30.3241 -42.7283 -36.0291 255 255 255
-38.6896 18.9706 21.4502 255 255 255
-34.2634 40.5995 -22.5176 255 255 255
-32.7597 47.447 -38.6015 255 255 255
-37.8457 -33.9746 23.6913 255 255 255
-38.1777 -35.2222 25.1923 255 255 255
-32.8492 39.6751 -38.3529 255 255 255
-32.8219 39.9502 -39.3897 255 255 255
-32.7826 48.1311 -47.3701 255 255 255
-32.4251 16.9105 -39.0533 255 255 255
-39.7239 19.2482 21.8578 255 255 255
-32.9065 16.0233 -38.957 255 255 255
-38.9632 -11.4594 21.9278 255 255 255
-38.6951 -34.6208 24.1369 255 255 255
-40.1512 18.517 21.9052 255 255 255
-34.5168 39.2134 -37.0702 255 255 255
-34.2772 49.576 -43.7452 255 255 255
-34.6389 44.4124 -39.4584 255 255 255
-40.4285 21.8217 21.9233 255 255 255
-40.3236 21.9929 21.097 255 255 255
-39.2638 -34.4689 23.9421 255 255 255
-40.495 20.1602 22.0949 255 255 255
-33.7336 -6.13875 -36.654 255 255 255
-33.7336 -6.13875 -36.654 255 255 255
-33.6399 -39.1445 -36.067 255 255 255
-40.6326 -34.1534 29.0702 255 255 255
-40.2279 -36.6803 23.5979 255 255 255
-35.4919 10.5256 -39.1713 255 255 255
-40.8794 -34.6605 23.2983 255 255 255
-35.2576 -32.8008 -39.2391 255 255 255
-35.2576 -32.8008 -39.2391 255 255 255
-36.1188 -36.3054 -29.3578 255 255 255
-36.0115 -36.4586 -29.5601 255 255 255
-37.8392 15.3671 -36.3031 255 255 255
-37.1576 -43.1464 -30.8192 255 255 255
-38.3805 10.6023 -38.3561 255 255 255
-44.19 39.7222 20.0388 255 255 255
-38.8297 10.1349 -37.4783 255 255 255
-39.3905 -30.5767 -20.7197 255 255 255
-40.2753 13.9991 -29.9321 255 255 255
-39.7181 14.1495 -35.0403 255 255 255
-39.3725 -3.39685 -34.6121 255 255 255
-41.1301 53.3639 -40.3165 255 255 255
-40.8954 -57.3505 -2.20213 255 255 255
-39.36 -30.8217 -36.3305 255 255 255
-41.1681 -56.2131 -0.390957 255 255 255
-41.6818 53.4411 -42.0402 255 255 255
-40.5442 14.6227 -35.5483 255 255 255
-39.5692 -29.0255 -36.5717 255 255 255
-39.3714 -28.6536 -33.8087 255 255 255
-40.9859 6.6087 -35.2958 255 255 255
-44.9686 15.8614 22.0074 255 255 255
-41.3093 -0.57779 -34.371 255 255 255
-45.3485 15.9754 22.2254 255 255 255
-42.8683 -35.2388 -9.95685 255 255 255
-45.7859 16.4181 22.7108 255 255 255
-45.7819 16.4126 22.661 255 255 255
-42.3074 -4.43719 -35.6395 255 255 255
-45.1314 -30.7135 23.0292 255 255 255
-46.6682 18.5346 23.8782 255 255 255
-45.4133 -34.9475 25.9464 255 255 255
-43.692 -2.1741 -34.6332 255 255 255
-43.8832 4.97913 -35.3145 255 255 255
-46.9927 20.4537 24.0165 255 255 255
-46.9983 19.2139 23.9861 255 255 255
-44.2179 5.3275 -34.1595 255 255 255
-46.0843 -36.8379 24.4043 255 255 255
-47.4021 20.3604 23.8547 255 255 255
-45.8007 36.9956 -34.1574 255 255 255
-44.6667 -6.42104 -34.7399 255 255 255
-45.3017 15.9554 -34.8013 255 255 255
-45.3222 -3.95548 -33.2702 255 255 255
-45.9394 8.2727 -34.3353 255 255 255
-46.4614 13.3218 -33.2115 255 255 255
-46.7097 15.7504 -33.2996 255 255 255
-47.8609 3.96862 1.50236 255 255 255
-48.0989 36.7902 -33.5795 255 255 255
-46.7356 -5.41242 -32.4816 255 255 255
-49.1051 19.9089 24.6798 255 255 255
-48.1576 2.46786 5.25159 255 255 255
-46.9399 -1.63212 -34.0704 255 255 255
-49.1636 20.193 24.4296 255 255 255
-46.5777 -34.875 -35.5894 255 255 255
-48.0264 -33.8013 26.9248 255 255 255
-50.0515 42.1345 21.733 255 255 255
-48.3152 3.98977 1.49538 255 255 255
-48.4915 -30.6279 32.9405 255 255 255
-48.2105 -34.5286 26.9114 255 255 255
-48.9634 -5.28969 23.7426 255 255 255
-49.4949 44.6176 -33.0603 255 255 255
-49.9181 19.1531 24.8237 255 255 255
-48.7132 -33.923 -6.3454 255 255 255
-50.3672 48.285 -35.6896 255 255 255
-50.4271 46.5401 -29.6814 255 255 255
-49.5614 3.19357 4.23534 255 255 255
-49.5383 1.69999 2.08778 255 255 255
-51.3377 40.8706 24.2657 255 255 255
49.4348 11.5987 -3.90124 255 255 255
49.4304 36.0965 -5.78793 255 255 255
49.6695 -20.6271 -2.71723 255 255 255
48.4655 56.8076 -6.38403 255 255 255
46.7292 28.8898 -2.62898 255 255 255
48.4979 29.4274 -5.14728 255 255 255
48.1982 -15.9088 -2.17907 255 255 255
47.6633 13.037 -3.98799 255 255 255
47.6067 73.7949 -6.45418 255 255 255
46.7042 11.5829 -3.28212 255 255 255
46.7222 37.0401 -4.72074 255 255 255
47.3607 -53.7616 0.403682 255 255 255
47.5684 70.3708 -7.90884 255 255 255
45.3001 15.737 -2.44291 255 255 255
47.0355 -25.1714 -1.9545 255 255 255
43.4123 52.8175 -4.40781 255 255 255
43.3232 49.8814 -4.07822 255 255 255
43.2217 -22.623 -0.405172 255 255 255
42.6688 65.2445 -4.61186 255 255 255
43.4081 9.21782 -3.19027 255 255 255
42.2241 21.4008 -2.44985 255 255 255
42.2472 21.4314 -2.54401 255 255 255
45.3832 61.2217 -8.74777 255 255 255
43.3508 13.3346 -3.6397 255 255 255
44.0724 -51.1282 -0.193067 255 255 255
42.307 -6.12551 -1.75642 255 255 255
42.0266 19.7474 -3.51559 255 255 255
42.0105 -30.3509 -0.124596 255 255 255
42.3945 -39.5429 0.165946 255 255 255
42.74 -39.6962 -0.300981 255 255 255
41.6919 -47.8788 1.43554 255 255 255
39.2625 48.9461 -1.89207 255 255 255
40.4709 32.5199 -3.14747 255 255 255
39.9127 41.2316 -2.89379 255 255 255
40.5585 9.32296 -2.12429 255 255 255
41.2824 -8.51023 -2.07749 255 255 255
40.5231 43.2208 -4.13705 255 255 255
39.6695 12.2373 -1.35217 255 255 255
38.7313 20.059 -0.635796 255 255 255
39.8231 20.3081 -2.24666 255 255 255
39.1489 56.9317 -3.2418 255 255 255
39.2695 12.8794 -1.59713 255 255 255
38.9015 9.8963 -1.04726 255 255 255
38.9567 61.3177 -3.90594 255 255 255
37.8122 18.0608 -0.401348 255 255 255
37.4797 15.4485 0.0417898 255 255 255
37.78 66.6774 -3.03781 255 255 255
39.0747 63.3744 -4.93281 255 255 255
38.1593 23.1502 -1.98585 255 255 255
39.072 -4.07129 -2.04852 255 255 255
36.2768 -11.348 1.42115 255 255 255
37.7841 11.0388 -2.5693 255 255 255
37.8916 -23.2315 -0.105136 255 255 255
34.9926 43.6443 -0.913678 255 255 255
35.8659 -8.35959 0.68117 255 255 255
37.7036 -55.4707 1.95276 255 255 255
36.0087 -30.8522 0.836559 255 255 255
33.4794 19.0858 0.564579 255 255 255
30.1742 45.826 3.95374 255 255 255
34.8324 48.7581 -3.69289 255 255 255
31.6322 41.9072 0.60849 255 255 255
34.1892 -13.2714 0.0220921 255 255 255
37.9188 4.71563 -7.79725 255 255 255
34.5241 -37.5743 0.499168 255 255 255
30.9905 20.3511 1.21909 255 255 255
32.2947 14.6467 -0.737963 255 255 255
33.794 -34.6802 0.430984 255 255 255
29.9901 68.9794 -1.19961 255 255 255
33.1481 38.7033 -5.00045 255 255 255
31.1736 65.6347 -3.33587 255 255 255
29.9032 16.6067 1.26992 255 255 255
29.8247 42.3418 -0.119249 255 255 255
32.9887 13.7613 -3.60297 255 255 255
31.8477 -59.8443 4.61562 255 255 255
31.1797 -10.4119 0.444364 255 255 255
39.2931 64.2096 -18.4742 255 255 255
31.0616 65.2674 -5.26687 255 255 255
32.3244 38.3159 -7.63096 255 255 255
37.9319 64.9869 -18.5597 255 255 255
26.3513 15.8023 0.877609 255 255 255
41.5763 66.1081 -26.9291 255 255 255
25.9233 70.7427 -1.91935 255 255 255
25.9233 70.7427 -1.91935 255 255 255
26.5465 -12.6111 2.10789 255 255 255
70.7956 5.89565 -74.0276 255 255 255
30.6585 -54.4082 -1.97758 255 255 255
26.9073 -56.0954 4.09021 255 255 255
46.0522 66.2685 -38.7468 255 255 255
23.2289 21.9259 2.24379 255 255 255
23.1821 16.8867 2.52876 255 255 255
33.6423 64.9384 -19.9777 255 255 255
23.5919 39.919 -2.2158 255 255 255
19.9481 44.7517 2.13145 255 255 255
40.8279 62.9005 -35.6925 255 255 255
41.035 65.2927 -36.2309 255 255 255
66.4839 -34.1969 -74.4723 255 255 255
20.3994 -56.6087 7.89086 255 255 255
20.4794 -58.5229 7.90964 255 255 255
57.5751 39.9057 -67.496 255 255 255
44.7657 -58.824 -37.1391 255 255 255
45.3685 -59.2167 -38.1787 255 255 255
42.5192 64.4637 -43.0179 255 255 255
59.0482 -37.5413 -65.8875 255 255 255
16.9803 14.6301 3.38031 255 255 255
15.7231 46.354 3.36196 255 255 255
53.5819 14.5989 -65.2307 255 255 255
40.4344 4.69431 -38.5401 255 255 255
16.0805 -36.1254 7.75984 255 255 255
52.706 50.2286 -68.9834 255 255 255
16.0141 -33.9587 6.88062 255 255 255
35.6235 65.5921 -37.9617 255 255 255
52.3055 51.7048 -69.9165 255 255 255
47.1258 43.7942 -60.0518 255 255 255
49.4056 14.6175 -63.6199 255 255 255
48.6875 12.1208 -62.3996 255 255 255
50.3346 53.2493 -70.6049 255 255 255
48.3117 -41.3296 -59.4569 255 255 255
47.6333 -43.0026 -57.8424 255 255 255
11.6895 20.9555 6.07586 255 255 255
29.7805 -55.6991 -22.3517 255 255 255
48.1487 -34.4716 -60.7964 255 255 255
44.7193 14.0256 -59.3686 255 255 255
10.6446 20.0163 6.76857 255 255 255
27.1314 -57.4161 -18.5825 255 255 255
42.1149 -61.9582 -47.5285 255 255 255
27.259 -60.4573 -19.5497 255 255 255
44.2614 35.7913 -62.1626 255 255 255
43.9417 7.66972 -60.2739 255 255 255
44.4069 -4.91492 -60.7482 255 255 255
44.8009 -38.646 -58.5228 255 255 255
7.9139 42.8338 7.46979 255 255 255
47.9541 -28.3862 -67.9509 255 255 255
43.0927 11.0168 -61.933 255 255 255
40.7698 -35.8165 -54.4171 255 255 255
40.154 -32.9814 -58.4769 255 255 255
22.235 -57.9233 -18.7759 255 255 255
37.7353 -34.9013 -55.8431 255 255 255
18.8237 69.1331 -24.2532 255 255 255
37.5739 -35.602 -56.265 255 255 255
35.3231 40.2547 -58.3691 255 255 255
37.4133 13.4131 -60.8794 255 255 255
34.0272 6.38558 -55.971 255 255 255
36.4135 -5.40726 -60.8022 255 255 255
28.8207 47.5953 -50.0458 255 255 255
29.1615 47.7758 -50.8504 255 255 255
33.5731 13.1373 -57.9163 255 255 255
28.845 48.5705 -50.7783 255 255 255
18.5558 -59.3966 -18.9494 255 255 255
29.7761 49.1415 -55.0477 255 255 255
16.124 -57.4701 -16.6447 255 255 255
14.2131 68.8166 -25.011 255 255 255
29.0684 10.9342 -54.42 255 255 255
28.092 36.7341 -54.9718 255 255 255
29.4444 -4.61036 -54.5461 255 255 255
-2.3742 15.9147 9.7907 255 255 255
7.68911 66.182 -19.6605 255 255 255
10.0394 -56.2479 -16.8343 255 255 255
20.9564 45.5884 -54.5814 255 255 255
21.291 37.7978 -55.445 255 255 255
7.99497 64.2364 -24.607 255 255 255
-4.13159 -10.8774 12.2102 255 255 255
-5.48761 -9.20234 14.1497 255 255 255
-4.36353 -11.2193 11.0516 255 255 255
21.5246 -65.6525 -50.7897 255 255 255
20.3182 52.2201 -60.9436 255 255 255
18.4719 42.0801 -55.6733 255 255 255
18.2853 -31.8827 -50.9234 255 255 255
3.2353 66.7399 -20.7585 255 255 255
16.1441 37.7347 -55.2182 255 255 255
16.3678 -4.21485 -53.1769 255 255 255
16.9988 -27.7491 -53.1655 255 255 255
16.204 51.3745 -59.6215 255 255 255
13.5393 44.7583 -53.637 255 255 255
-9.91312 17.8677 13.0673 255 255 255
-9.61438 40.7112 9.82313 255 255 255
-9.61518 40.7022 9.83603 255 255 255
14.868 -32.8459 -51.7424 255 255 255
13.3874 10.4173 -53.4556 255 255 255
12.7609 -40.1903 -48.0642 255 255 255
12.2462 -24.7522 -50.8815 255 255 255
12.6462 -42.7649 -50.7705 255 255 255
11.7197 53.5459 -58.336 255 255 255
-11.2245 -29.9359 13.7513 255 255 255
-12.3333 -11.4925 13.504 255 255 255
-12.6291 -11.3976 14.3828 255 255 255
-12.4526 15.922 9.60265 255 255 255
-15.1538 40.5085 10.9104 255 255 255
3.04521 12.3861 -48.2101 255 255 255
-16.7485 17.953 14.8985 255 255 255
-16.5612 16.3916 14.2669 255 255 255
2.16419 2.43122 -48.6603 255 255 255
-19.1822 19.0089 15.7434 255 255 255
-0.166552 -40.2013 -44.3595 255 255 255
-19.0861 -35.4395 18.8703 255 255 255
-18.3653 -29.6497 15.4001 255 255 255
-10.816 -62.3117 -12.6361 255 255 255
-21.737 40.8555 13.4527 255 255 255
-22.3678 47.7536 11.7504 255 255 255
-6.0927 12.2719 -47.6068 255 255 255
-5.54728 -24.1231 -46.2488 255 255 255
-5.06026 -29.9241 -46.9542 255 255 255
-3.52402 -31.7519 -53.8143 255 255 255
-7.25795 12.3501 -46.4993 255 255 255
-7.4054 -7.5848 -45.9749 255 255 255
-6.46054 -45.4508 -47.2975 255 255 255
-8.54282 -7.40131 -45.8997 255 255 255
-23.6441 -35.8865 19.5256 255 255 255
-23.3062 -36.6987 18.7625 255 255 255
-24.8107 -10.3909 17.364 255 255 255
-25.0908 -10.2872 18.4381 255 255 255
-11.7544 40.2668 -47.2083 255 255 255
-10.9905 11.0144 -47.3054 255 255 255
-31.7117 21.7455 18.7339 255 255 255
-31.728 21.7224 18.8473 255 255 255
-19.2587 -0.86675 -49.73 255 255 255
-19.8915 -1.07399 -45.4831 255 255 255
-27.8474 -55.4076 5.1968 255 255 255
-26.066 -60.0577 -3.51047 255 255 255
-32.357 22.4023 18.3011 255 255 255
-33.6095 45.8986 20.1594 255 255 255
-23.0551 48.9616 -46.565 255 255 255
-22.8202 -5.20299 -42.8704 255 255 255
-33.9475 19.0285 20.0093 255 255 255
-33.7973 16.9097 19.517 255 255 255
-26.5651 -57.1506 -12.8647 255 255 255
-34.1838 39.2194 14.474 255 255 255
-34.6788 40.323 16.13 255 255 255
-34.9927 19.2475 20.5235 255 255 255
-35.3962 40.0438 16.0278 255 255 255
-35.4911 39.7654 16.8286 255 255 255
-34.6004 -11.9467 19.2483 255 255 255
-36.8487 40.3973 17.2551 255 255 255
-36.5906 17.7664 20.6342 255 255 255
-36.7035 22.0225 19.3996 255 255 255
-36.8098 21.9537 19.7827 255 255 255
-27.9593 -5.92896 -41.7924 255 255 255
-27.9546 -5.91019 -40.7577 255 255 255
-37.2485 -5.12887 21.2782 255 255 255
-30.7161 -6.43663 -39.9835 255 255 255
-37.996 -31.588 21.9372 255 255 255
-33.6661 -56.8729 -9.48648 255 255 255
-32.8106 53.2144 -45.4276 255 255 255
-38.7405 -34.3364 24.0472 255 255 255
-33.6327 35.5578 -41.5643 255 255 255
-33.4468 15.7431 -38.5099 255 255 255
-41.1193 41.1853 21.7889 255 255 255
-40.6366 40.2707 17.6961 255 255 255
-34.5145 54.0534 -45.0667 255 255 255
-34.6099 53.1063 -44.5388 255 255 255
-33.828 -5.81786 -38.7174 255 255 255
-34.3548 -25.154 -35.3121 255 255 255
-35.026 14.5253 -39.6199 255 255 255
-34.9055 -41.3787 -32.971 255 255 255
-37.8648 -5.43104 -31.1993 255 255 255
-36.9907 -42.6008 -31.1627 255 255 255
-39.0831 -36.5642 -12.4983 255 255 255
-38.4823 12.6291 -38.2246 255 255 255
-38.3165 -40.3184 -30.0702 255 255 255
-44.8274 41.5258 20.9913 255 255 255
-38.5026 -33.7891 -33.9705 255 255 255
-41.0083 45.0061 -36.1606 255 255 255
-41.7652 49.7538 -35.4671 255 255 255
-41.7384 52.6345 -38.9644 255 255 255
-41.4835 43.9249 -36.2663 255 255 255
-41.7709 14.2084 -32.6028 255 255 255
-41.2545 -5.43518 -34.0616 255 255 255
-45.4641 16.9242 22.83 255 255 255
-42.5608 10.3051 -34.8852 255 255 255
-42.3358 -32.1262 -29.4888 255 255 255
-46.2895 16.0777 22.6645 255 255 255
-43.3872 11.9677 -35.6842 255 255 255
-42.2244 -31.2965 -38.5067 255 255 255
-42.3543 -39.9817 -33.3678 255 255 255
-46.7617 18.0779 23.5791 255 255 255
-44.2994 13.5088 -29.6182 255 255 255
-45.1678 50.9986 -38.4811 255 255 255
-44.5035 15.0285 -34.0418 255 255 255
-45.5975 11.3933 -28.9563 255 255 255
-48.6686 17.0192 23.6682 255 255 255
-48.5342 45.6837 -33.7593 255 255 255
-49.0768 46.1426 -28.7939 255 255 255
-48.0815 1.67841 0.407162 255 255 255
-48.5128 -8.2038 25.9031 255 255 255
-48.2116 -34.7812 26.479 255 255 255
-48.8786 -6.10032 25.5097 255 255 255
-48.6548 16.1844 -32.8375 255 255 255
-49.2215 -5.64841 24.8023 255 255 255
-49.4437 -6.53137 25.151 255 255 255
-49.4437 -6.53137 25.151 255 255 255
122.944 -4.97754 -82.6212 255 255 255
50.6241 45.8681 -5.50609 255 255 255
51.6902 31.8546 -6.91462 255 255 255
50.9675 13.0706 -5.77022 255 255 255
49.5926 -20.5795 -1.40366 255 255 255
49.5471 23.6229 -4.7728 255 255 255
50.498 -3.82904 -4.98327 255 255 255
49.1539 22.8685 -5.20609 255 255 255
50.1035 -47.2947 -1.43907 255 255 255
49.6024 -41.4501 -1.32356 255 255 255
47.5856 8.77686 -3.11916 255 255 255
47.9456 31.6545 -4.98092 255 255 255
48.466 -60.5038 0.794074 255 255 255
48.7421 -36.8572 -1.8894 255 255 255
47.7069 -51.4947 0.329201 255 255 255
45.9128 -1.40436 -2.05291 255 255 255
46.8112 -22.3805 -1.95707 255 255 255
46.0235 -31.2487 -0.546772 255 255 255
43.3246 9.47306 -2.09831 255 255 255
42.6618 -10.0021 -1.65753 255 255 255
42.6349 70.7231 -7.21137 255 255 255
41.2649 -0.398114 -2.02528 255 255 255
40.1966 62.7864 -3.81792 255 255 255
40.1796 62.7553 -3.7579 255 255 255
38.7298 -30.6837 0.802759 255 255 255
37.1921 22.9407 -1.77851 255 255 255
36.6943 -58.4698 4.41002 255 255 255
37.4507 -61.3409 3.79176 255 255 255
37.5929 -37.6891 0.878819 255 255 255
36.9609 -3.74931 -1.16284 255 255 255
36.3462 23.6407 -3.0292 255 255 255
38.4543 -39.5281 -1.30552 255 255 255
35.6272 48.4221 -4.3711 255 255 255
32.2087 19.2475 0.830549 255 255 255
32.7267 16.089 0.478502 255 255 255
33.4003 -33.1978 0.959866 255 255 255
35.631 -29.3998 -3.19727 255 255 255
30.6137 19.5873 0.376803 255 255 255
77.0557 11.2167 -73.0096 255 255 255
76.6859 8.81591 -72.238 255 255 255
32.4059 -30.1858 0.557763 255 255 255
35.1235 38.5689 -9.44584 255 255 255
31.4478 38.7023 -4.9638 255 255 255
31.5045 38.7702 -5.08266 255 255 255
43.7852 63.8599 -26.5316 255 255 255
31.2882 37.9531 -4.70059 255 255 255
45.0381 -57.6508 -20.0344 255 255 255
45.6212 63.0643 -30.2628 255 255 255
29.1884 40.4018 -2.47465 255 255 255
24.8849 46.3478 3.8415 255 255 255
28.7755 -59.4178 5.68583 255 255 255
31.8806 -6.0521 -4.75009 255 255 255
29.7296 -31.5214 0.463227 255 255 255
27.9974 66.8653 -3.73739 255 255 255
27.3043 14.25 -0.59118 255 255 255
46.3101 65.1098 -35.1009 255 255 255
24.2565 46.0674 0.599866 255 255 255
78.0215 5.67708 -89.3233 255 255 255
25.8896 39.2854 -3.82017 255 255 255
39.2304 -58.9852 -18.4254 255 255 255
22.7101 16.3196 2.89852 255 255 255
45.4957 64.2131 -40.9635 255 255 255
48.1031 65.5079 -45.5995 255 255 255
21.676 19.4176 2.47292 255 255 255
21.1549 -34.2826 6.44955 255 255 255
41.293 -58.2197 -26.5939 255 255 255
15.8694 37.4182 9.11323 255 255 255
19.5953 66.6757 0.385648 255 255 255
36.6547 66.5501 -30.3234 255 255 255
33.1582 63.8477 -24.2947 255 255 255
23.9017 -57.3934 1.16831 255 255 255
32.5438 66.5152 -28.8221 255 255 255
57.0993 -38.1331 -67.6958 255 255 255
49.5617 43.0029 -61.9952 255 255 255
14.8893 46.9265 2.41237 255 255 255
47.9037 14.9156 -57.9061 255 255 255
11.913 45.8624 4.23301 255 255 255
28.2628 -61.8526 -20.0392 255 255 255
50.264 -28.8301 -67.1241 255 255 255
9.69838 43.9239 5.5623 255 255 255
44.8291 53.8642 -65.5887 255 255 255
45.2773 52.0316 -66.0536 255 255 255
23.1879 66.7656 -24.7015 255 255 255
28.0925 -63.9888 -23.9188 255 255 255
43.0943 -24.3077 -58.7251 255 255 255
41.9441 38.6464 -63.1592 255 255 255
38.1141 38.1497 -58.9309 255 255 255
39.4594 -42.8573 -58.4157 255 255 255
37.2748 9.32801 -59.8016 255 255 255
34.8633 6.79931 -58.177 255 255 255
7.06442 -6.21115 2.76102 255 255 255
32.0723 39.8192 -56.9362 255 255 255
33.9775 54.166 -62.9496 255 255 255
2.32325 43.5674 7.80754 255 255 255
31.54 -28.5691 -52.354 255 255 255
32.3992 -27.8574 -54.9624 255 255 255
29.1207 46.3681 -55.5068 255 255 255
29.0747 44.5699 -55.405 255 255 255
28.2525 41.0426 -54.07 255 255 255
32.9076 -27.1821 -58.1299 255 255 255
28.8254 11.8044 -53.6683 255 255 255
29.1828 -7.04525 -53.3276 255 255 255
27.7591 9.65223 -54.7247 255 255 255
27.5635 51.175 -59.0257 255 255 255
-0.248039 -7.22745 10.9627 255 255 255
-1.82554 41.6829 8.27032 255 255 255
-6.53567 41.5398 13.4938 255 255 255
20.5282 14.5493 -54.1716 255 255 255
19.993 33.8123 -56.1284 255 255 255
19.7819 38.8859 -56.5785 255 255 255
20.4001 -30.4974 -53.5055 255 255 255
19.5839 52.9782 -60.6103 255 255 255
19.5887 51.5622 -60.4409 255 255 255
19.1016 50.1094 -58.9445 255 255 255
2.82515 65.1285 -19.3407 255 255 255
15.9111 14.0427 -52.0272 255 255 255
0.685822 66.7772 -20.3337 255 255 255
14.3238 -33.3468 -51.6768 255 255 255
9.8565 -29.6621 -51.197 255 255 255
8.67881 -43.9896 -49.5539 255 255 255
7.94317 -24.924 -50.2172 255 255 255
5.70295 11.9709 -49.5343 255 255 255
-15.8002 40.1986 10.7945 255 255 255
3.56915 14.6602 -50.1199 255 255 255
0.271206 13.861 -47.6321 255 255 255
-0.0629718 15.663 -47.973 255 255 255
-18.9829 -34.6806 20.9866 255 255 255
-19.6457 41.9556 13.6801 255 255 255
-18.3843 -8.40002 15.4449 255 255 255
-20.2601 18.6407 16.3365 255 255 255
-20.2601 18.6407 16.3365 255 255 255
-1.16052 -40.859 -45.5009 255 255 255
-6.17737 33.754 -45.8057 255 255 255
-6.10732 12.6723 -46.9346 255 255 255
-16.1512 65.0192 -18.2968 255 255 255
-24.471 -36.0808 19.3634 255 255 255
-26.0975 -36.2581 21.1937 255 255 255
-25.2062 -37.599 17.7294 255 255 255
-14.9116 14.9314 -44.4827 255 255 255
-28.9073 40.9764 15.6334 255 255 255
-18.3575 -39.9259 -40.292 255 255 255
-20.933 49.0274 -48.3166 255 255 255
-21.8271 37.3564 -49.2134 255 255 255
-27.9989 -57.1347 -5.50819 255 255 255
-26.9889 -57.4423 -13.5472 255 255 255
-26.9889 -57.4423 -13.5472 255 255 255
-35.1074 16.7965 19.8862 255 255 255
