ply
format ascii 1.0
element vertex 1183
property float x
property float y
property float z
property uchar red
property uchar green
property uchar blue
end_header
-0.354708 0.236158 -1.44207 255 255 255
-0.3678 0.141108 -1.33544 255 255 255
-0.3678 0.141108 -1.33544 255 255 255
-0.369348 0.103523 -1.33343 255 255 255
-0.368645 0.178121 -1.332 255 255 255
-0.368791 0.174017 -1.33126 255 255 255
-0.368791 0.174017 -1.33126 255 255 255
-0.36899 0.160057 -1.33553 255 255 255
-0.36899 0.160057 -1.33553 255 255 255
-0.369175 0.147599 -1.33378 255 255 255
-0.369175 0.147599 -1.33378 255 255 255
-0.36929 0.124463 -1.33445 255 255 255
-0.36929 0.124463 -1.33445 255 255 255
-0.371717 0.187568 -1.31356 255 255 255
-0.372773 0.150743 -1.31742 255 255 255
-0.373088 0.12663 -1.31871 255 255 255
-0.369344 0.0579957 -1.23923 255 255 255
-0.369065 0.0809715 -1.23759 255 255 255
-0.371057 0.0499836 -1.23033 255 255 255
-0.375583 0.171412 -1.2977 255 255 255
-0.371815 0.0681738 -1.23196 255 255 255
-0.373368 0.0343805 -1.22797 255 255 255
-0.376891 0.0475359 -1.22906 255 255 255
-0.380817 0.200861 -1.26462 255 255 255
-0.380834 0.0548095 -1.22908 255 255 255
-0.382742 0.0316216 -1.22542 255 255 255
-0.386182 0.0937915 -1.2295 255 255 255
-0.391072 0.0277247 -1.22312 255 255 255
-0.394623 0.0281678 -1.20155 255 255 255
-0.398385 0.0331981 -1.18773 255 255 255
-0.398204 0.0281686 -1.18736 255 255 255
-0.397229 0.13744 -1.19064 255 255 255
-0.397596 0.162094 -1.18931 255 255 255
-0.401785 0.0693918 -1.18875 255 255 255
-0.401077 0.154615 -1.18773 255 255 255
-0.406239 0.0726371 -1.17371 255 255 255
-0.403244 0.160683 -1.17346 255 255 255
-0.405429 0.132099 -1.17352 255 255 255
-0.40429 0.16349 -1.17259 255 255 255
0.101606 0.0961291 -1.5783 255 255 255
0.153608 -0.0982131 -1.62474 255 255 255
0.191797 0.204703 -1.73188 255 255 255
0.0459223 -0.0405018 -1.55094 255 255 255
0.0337004 -0.033309 -1.55087 255 255 255
-0.0314427 -0.0410993 -1.53392 255 255 255
-0.0435332 0.194095 -1.58751 255 255 255
-0.0675482 -0.0343356 -1.52629 255 255 255
0.067718 -0.0627624 -1.87897 255 255 255
-0.0942942 -0.0355823 -1.51643 255 255 255
0.0724474 -0.0323761 -1.89814 255 255 255
0.0524916 -0.0643261 -1.88209 255 255 255
-0.0258718 0.198921 -1.90638 255 255 255
-0.0569329 0.170824 -1.89741 255 255 255
-0.181816 0.226106 -1.50847 255 255 255
-0.180907 0.111346 -1.53702 255 255 255
-0.0813865 -0.0665792 -1.86443 255 255 255
-0.188457 0.0962609 -1.52627 255 255 255
-0.209814 -0.169798 -1.54582 255 255 255
-0.232467 0.209388 -1.5079 255 255 255
-0.232467 0.209388 -1.5079 255 255 255
-0.229829 0.205086 -1.5219 255 255 255
-0.273442 0.082865 -1.50657 255 255 255
-0.273215 0.0907759 -1.51569 255 255 255
-0.282884 0.224768 -1.48252 255 255 255
-0.258492 -0.267132 -1.78274 255 255 255
-0.302687 0.0966631 -1.49569 255 255 255
-0.304953 -0.0398504 -1.45853 255 255 255
-0.300984 0.0883563 -1.5038 255 255 255
-0.310089 -0.0571168 -1.46151 255 255 255
-0.312825 0.0882966 -1.48724 255 255 255
-0.315517 0.073183 -1.49951 255 255 255
-0.31874 0.212207 -1.47603 255 255 255
-0.326363 0.00803087 -1.59567 255 255 255
-0.333438 0.202204 -1.46503 255 255 255
-0.339501 -0.0188725 -1.44856 255 255 255
-0.340464 -0.00863412 -1.45102 255 255 255
-0.344991 0.239438 -1.45198 255 255 255
-0.343808 0.24045 -1.4938 255 255 255
-0.345079 0.220388 -1.45845 255 255 255
-0.350179 0.216561 -1.45738 255 255 255
-0.362238 0.245204 -1.47746 255 255 255
-0.362512 0.253757 -1.47664 255 255 255
-0.365703 0.258144 -1.47436 255 255 255
-0.366304 0.0757654 -1.24301 255 255 255
-0.368336 0.0167346 -1.23154 255 255 255
-0.368924 0.0637258 -1.23415 255 255 255
-0.370927 0.0395872 -1.22952 255 255 255
-0.374604 0.0821732 -1.23209 255 255 255
-0.379821 0.145163 -1.28587 255 255 255
-0.379504 0.163986 -1.2834 255 255 255
-0.380077 0.133815 -1.2846 255 255 255
-0.380077 0.133815 -1.2846 255 255 255
-0.376542 0.0558241 -1.23033 255 255 255
-0.377411 0.0387846 -1.22797 255 255 255
-0.381197 0.10953 -1.26811 255 255 255
-0.378111 0.0614649 -1.22945 255 255 255
-0.381971 0.187269 -1.26597 255 255 255
-0.383018 0.158845 -1.26679 255 255 255
-0.383868 0.143572 -1.26858 255 255 255
-0.383907 0.0493246 -1.22729 255 255 255
-0.386486 0.152173 -1.25295 255 255 255
-0.38598 0.0248862 -1.22395 255 255 255
-0.389416 0.0481308 -1.22435 255 255 255
-0.389963 0.0313459 -1.22294 255 255 255
-0.389963 0.0313459 -1.22294 255 255 255
-0.388861 0.16663 -1.23611 255 255 255
-0.39499 0.0401454 -1.20273 255 255 255
-0.393945 0.154261 -1.20348 255 255 255
-0.393869 0.170775 -1.20421 255 255 255
-0.397066 0.162389 -1.20386 255 255 255
-0.399023 0.0582306 -1.18746 255 255 255
-0.400536 0.157075 -1.17395 255 255 255
-0.404103 0.157866 -1.17314 255 255 255
0.106599 0.0346066 -1.58905 255 255 255
0.102186 0.0539736 -1.60174 255 255 255
0.0736698 0.107989 -1.59073 255 255 255
0.153642 -0.18863 -1.68249 255 255 255
0.0522867 0.0860368 -1.56791 255 255 255
0.0211699 -0.0308376 -1.54019 255 255 255
0.293809 -0.0273815 -2.01072 255 255 255
-0.107459 -0.0364188 -1.51538 255 255 255
-0.141994 -0.0371469 -1.50703 255 255 255
-0.145808 0.0867462 -1.53445 255 255 255
-0.170064 0.218448 -1.54092 255 255 255
-0.197726 0.213916 -1.55014 255 255 255
-0.205433 0.209398 -1.52123 255 255 255
-0.210201 -0.0247492 -1.50179 255 255 255
-0.217999 -0.025883 -1.50459 255 255 255
-0.217999 -0.025883 -1.50459 255 255 255
-0.162051 -0.252348 -1.86254 255 255 255
-0.295311 -0.0300228 -1.4751 255 255 255
-0.313024 0.22216 -1.47191 255 255 255
-0.313024 0.22216 -1.47191 255 255 255
-0.32742 0.235095 -1.45998 255 255 255
-0.33554 0.13124 -1.47434 255 255 255
-0.371706 0.0940683 -1.23367 255 255 255
-0.376669 0.0681698 -1.23017 255 255 255
-0.385799 0.112839 -1.26174 255 255 255
-0.387872 0.116295 -1.26676 255 255 255
-0.38701 0.196393 -1.23278 255 255 255
0.175741 0.150959 -1.71613 255 255 255
0.219471 -0.180237 -1.75836 255 255 255
-0.010199 0.101407 -1.56258 255 255 255
-0.0243082 -0.033593 -1.53481 255 255 255
0.0366049 -0.106656 -1.9023 255 255 255
-0.159178 -0.0265394 -1.5119 255 255 255
-0.163861 0.0933039 -1.53204 255 255 255
-0.194561 0.102941 -1.52629 255 255 255
-0.194926 -0.0276036 -1.51236 255 255 255
-0.292891 -0.0234687 -1.47916 255 255 255
-0.295372 0.0450689 -1.55871 255 255 255
-0.303188 0.0159022 -1.59558 255 255 255
-0.31919 0.0183484 -1.5825 255 255 255
-0.327276 0.125543 -1.50071 255 255 255
-0.328722 -0.0387935 -1.45042 255 255 255
-0.332281 0.212054 -1.4575 255 255 255
-0.33159 0.201036 -1.48384 255 255 255
-0.335224 0.103423 -1.45834 255 255 255
-0.335698 -0.0264672 -1.44454 255 255 255
-0.339867 0.212874 -1.4582 255 255 255
-0.366265 0.0431023 -1.23798 255 255 255
-0.366446 0.0629476 -1.23889 255 255 255
-0.375199 0.0918327 -1.23064 255 255 255
-0.376847 0.0577017 -1.23056 255 255 255
-0.38115 0.106221 -1.26405 255 255 255
-0.382522 0.0299309 -1.2259 255 255 255
-0.391481 0.169924 -1.21945 255 255 255
-0.391612 0.161871 -1.22005 255 255 255
-0.396141 0.0349226 -1.20235 255 255 255
-0.395534 0.167635 -1.2047 255 255 255
-0.395534 0.167635 -1.2047 255 255 255
-0.403622 0.0463074 -1.17379 255 255 255
-0.403677 0.0624656 -1.17339 255 255 255
0.121619 -0.10828 -1.55634 255 255 255
0.111079 0.108123 -1.60644 255 255 255
0.230472 -0.0513023 -1.78193 255 255 255
0.0177583 -0.0459213 -1.54795 255 255 255
0.124901 -0.213338 -1.8487 255 255 255
-0.188233 0.0606866 -1.55799 255 255 255
-0.30314 -0.0249712 -1.47939 255 255 255
-0.332274 0.138966 -1.46653 255 255 255
-0.357779 0.224996 -1.43449 255 255 255
-0.367225 0.037853 -1.23317 255 255 255
-0.368339 0.0814952 -1.24393 255 255 255
-0.377115 0.0196087 -1.22584 255 255 255
-0.377115 0.0196087 -1.22584 255 255 255
-0.378837 0.0726969 -1.24422 255 255 255
-0.385728 0.0340719 -1.22404 255 255 255
-0.385728 0.0340719 -1.22404 255 255 255
-0.388386 0.0579928 -1.2257 255 255 255
-0.396597 0.0625054 -1.20449 255 255 255
-0.394683 0.186206 -1.20386 255 255 255
-0.399674 0.0419619 -1.18336 255 255 255
-0.400531 0.0477627 -1.18807 255 255 255
-0.400531 0.0477627 -1.18807 255 255 255
-0.402988 0.0521907 -1.17091 255 255 255
0.0150348 0.225646 -1.57007 255 255 255
0.156237 -0.0513022 -1.88353 255 255 255
0.0162899 -0.0829642 -1.90148 255 255 255
-0.262229 -0.0332116 -1.47385 255 255 255
-0.324476 0.205774 -1.47102 255 255 255
-0.322727 0.112213 -1.48878 255 255 255
-0.326973 -0.0189437 -1.47664 255 255 255
-0.326973 -0.0189437 -1.47664 255 255 255
-0.371815 0.0752187 -1.23975 255 255 255
-0.398884 0.177132 -1.18763 255 255 255
0.0924693 0.0585058 -1.57501 255 255 255
0.0326506 0.208618 -1.56983 255 255 255
-0.0110743 -0.0538772 -1.55847 255 255 255
0.0858213 -0.0871492 -1.87326 255 255 255
-0.135118 -0.0364946 -1.52157 255 255 255
-0.296742 0.213649 -1.52691 255 255 255
-0.30724 0.0412977 -1.62417 255 255 255
-0.386318 0.0484229 -1.22472 255 255 255
0.0941425 0.177862 -1.59179 255 255 255
0.100597 0.128427 -1.59426 255 255 255
0.0102667 0.0801192 -1.59825 255 255 255
-0.0342062 0.0471601 -1.63673 255 255 255
-0.375623 0.0345789 -1.22765 255 255 255
0.160344 -0.161406 -1.72001 255 255 255
-0.254621 0.21856 -1.52574 255 255 255
-0.344254 0.112346 -1.46012 255 255 255
-0.253323 -0.0343297 -1.66611 255 255 255
-0.402742 0.164202 -1.16751 255 255 255
-0.402742 0.164202 -1.16751 255 255 255
-0.0854828 0.15474 -1.55307 255 255 255
-0.0854828 0.15474 -1.55307 255 255 255
-0.0741216 0.0186571 -1.55765 255 255 255
0.214072 -0.0162163 -1.63895 255 255 255
0.257394 -0.0025358 -1.70947 255 255 255
0.224099 0.0901791 -1.67314 255 255 255
0.1922 -0.114488 -1.64516 255 255 255
0.147382 -0.0945339 -1.63383 255 255 255
0.148987 0.0559183 -1.64616 255 255 255
0.115072 0.0621617 -1.60527 255 255 255
0.140221 -0.0330028 -1.63641 255 255 255
0.166281 -0.0399009 -1.67719 255 255 255
0.186333 -0.0287596 -1.72062 255 255 255
0.213797 -0.143767 -1.75731 255 255 255
0.119483 -0.0369141 -1.63838 255 255 255
0.113344 0.10246 -1.63277 255 255 255
0.373601 -0.205574 -2.06585 255 255 255
0.349451 0.22593 -2.03696 255 255 255
0.0454026 -0.0546427 -1.60908 255 255 255
0.0451837 -0.0435141 -1.62013 255 255 255
0.265215 -0.248751 -1.97231 255 255 255
0.273613 0.00970067 -2.04082 255 255 255
0.232787 -0.0601429 -2.01746 255 255 255
0.185387 -0.25071 -1.93457 255 255 255
-0.00636724 0.220741 -1.60038 255 255 255
0.123123 -0.0674481 -1.84117 255 255 255
0.0340851 0.325296 -1.70834 255 255 255
0.111302 -0.242212 -1.85795 255 255 255
0.151998 -0.0358282 -1.95751 255 255 255
0.154577 -0.036711 -1.9649 255 255 255
0.100866 0.23515 -1.91917 255 255 255
0.0114318 0.342665 -1.73248 255 255 255
0.0977279 0.202172 -1.93694 255 255 255
0.108233 0.242629 -2.00353 255 255 255
0.066134 0.0302771 -1.92604 255 255 255
0.0563536 -0.0758286 -1.90502 255 255 255
-0.0248506 0.34736 -1.74515 255 255 255
0.0342039 0.230095 -1.91279 255 255 255
0.0281129 0.217791 -1.90377 255 255 255
0.0431162 -0.038975 -1.93632 255 255 255
0.0284504 0.205271 -1.90868 255 255 255
-0.0938648 -0.0761072 -1.60586 255 255 255
-0.118045 -0.0376975 -1.54505 255 255 255
0.0323286 0.164897 -1.92595 255 255 255
-0.120998 0.0831792 -1.5548 255 255 255
-0.123631 0.114451 -1.57073 255 255 255
-0.0649413 0.34421 -1.73679 255 255 255
-0.0101973 0.0315721 -1.88997 255 255 255
-0.0257629 0.342095 -1.89003 255 255 255
-0.0745442 0.346672 -1.76939 255 255 255
-0.0384306 0.0303043 -1.8842 255 255 255
-0.0495685 0.224606 -1.894 255 255 255
-0.157573 0.351378 -1.56668 255 255 255
-0.157622 0.351323 -1.56654 255 255 255
-0.0542179 0.00115673 -1.88281 255 255 255
-0.0866141 0.13857 -1.87569 255 255 255
-0.139398 0.343154 -1.71397 255 255 255
-0.10644 -0.0558731 -1.83488 255 255 255
-0.194433 0.233259 -1.53847 255 255 255
-0.186627 0.239015 -1.56374 255 255 255
-0.216613 0.235646 -1.51645 255 255 255
-0.231653 -0.0575152 -1.50712 255 255 255
-0.234687 -0.0564579 -1.50419 255 255 255
-0.17516 0.343622 -1.8408 255 255 255
-0.250224 0.107756 -1.51993 255 255 255
-0.257134 -0.0647594 -1.51898 255 255 255
-0.26376 -0.0398098 -1.50032 255 255 255
-0.268604 0.0894062 -1.51148 255 255 255
-0.274927 0.105775 -1.5102 255 255 255
-0.276959 0.0861212 -1.50911 255 255 255
-0.224029 0.189782 -1.90394 255 255 255
-0.279778 -0.0347458 -1.50419 255 255 255
-0.278825 0.0940413 -1.52846 255 255 255
-0.231225 -0.226035 -1.88775 255 255 255
-0.232522 0.162124 -1.907 255 255 255
-0.283881 -0.0539978 -1.49822 255 255 255
-0.28319 -0.0607308 -1.52148 255 255 255
-0.290267 -0.040511 -1.49672 255 255 255
-0.261035 0.176663 -1.82674 255 255 255
-0.263469 0.192354 -1.82582 255 255 255
-0.296356 -0.037597 -1.50622 255 255 255
-0.274493 0.232342 -1.82501 255 255 255
-0.275963 0.148019 -1.81883 255 255 255
-0.312656 0.11804 -1.50461 255 255 255
-0.300987 0.197987 -1.81789 255 255 255
-0.300987 0.197987 -1.81789 255 255 255
-0.306569 0.216608 -1.81701 255 255 255
-0.32191 0.0774569 -1.52429 255 255 255
-0.31586 0.343761 -1.66858 255 255 255
-0.318023 0.187291 -1.81391 255 255 255
-0.371994 0.077702 -1.23904 255 255 255
-0.373848 0.0149479 -1.23598 255 255 255
-0.378097 0.0215946 -1.23553 255 255 255
-0.378963 0.0762381 -1.23922 255 255 255
-0.379254 0.0418823 -1.23538 255 255 255
-0.380932 0.089763 -1.23369 255 255 255
-0.382976 0.091621 -1.23795 255 255 255
-0.382808 0.0471068 -1.23756 255 255 255
-0.385009 0.0624739 -1.23399 255 255 255
-0.385581 0.0383444 -1.23471 255 255 255
-0.386024 0.00512009 -1.24054 255 255 255
-0.386971 0.075287 -1.23524 255 255 255
-0.387855 0.0610996 -1.23272 255 255 255
0.309825 0.116161 -1.78407 255 255 255
0.178122 0.156602 -1.62269 255 255 255
0.216421 0.290234 -1.70833 255 255 255
0.143395 0.147572 -1.63081 255 255 255
0.142142 0.143096 -1.62997 255 255 255
0.0900477 0.0646301 -1.57115 255 255 255
0.0720294 0.196257 -1.57707 255 255 255
0.0615232 0.0704783 -1.57873 255 255 255
0.131833 0.33839 -1.71431 255 255 255
0.192201 -0.0506714 -1.84606 255 255 255
0.183905 -0.0506537 -1.84545 255 255 255
0.0291568 -0.0518994 -1.58091 255 255 255
0.278418 0.00892609 -1.99002 255 255 255
0.277286 -0.242457 -2.08888 255 255 255
0.183936 0.0256929 -1.94862 255 255 255
0.193977 -0.304054 -2.00188 255 255 255
0.0926509 0.164493 -1.86912 255 255 255
0.0740316 0.235502 -1.93093 255 255 255
0.0775747 0.0286766 -1.94205 255 255 255
-0.00697619 0.345069 -1.75723 255 255 255
0.0944225 0.150606 -1.99106 255 255 255
0.0258149 -0.00448553 -1.9108 255 255 255
-0.00996988 -0.0593982 -1.85761 255 255 255
-0.0230191 -0.0740381 -1.8731 255 255 255
-0.150068 0.213595 -1.55627 255 255 255
-0.0988204 0.360124 -1.72095 255 255 255
-0.0459245 0.0276006 -1.88697 255 255 255
-0.158994 0.360317 -1.56328 255 255 255
-0.110999 0.348919 -1.71857 255 255 255
-0.115928 -0.290523 -1.99456 255 255 255
-0.271596 0.0906451 -1.51011 255 255 255
-0.216588 -0.256812 -1.90008 255 255 255
-0.281405 0.244801 -1.52038 255 255 255
-0.230483 0.189903 -1.90239 255 255 255
-0.236249 -0.197866 -1.84467 255 255 255
-0.282138 -0.0516834 -1.51087 255 255 255
-0.254541 -0.183192 -1.80721 255 255 255
-0.269254 0.217625 -1.82501 255 255 255
-0.307654 0.339993 -1.53555 255 255 255
-0.293634 0.184518 -1.81803 255 255 255
-0.295042 0.19192 -1.81807 255 255 255
-0.32059 -0.0390296 -1.50417 255 255 255
-0.320503 -0.0366227 -1.49525 255 255 255
-0.332277 0.110838 -1.47938 255 255 255
-0.340989 0.224001 -1.49959 255 255 255
-0.374546 0.264591 -1.47918 255 255 255
-0.377153 0.307892 -1.48032 255 255 255
-0.379038 0.299383 -1.47717 255 255 255
-0.381516 0.3077 -1.47688 255 255 255
-0.382319 0.305231 -1.47667 255 255 255
-0.371787 0.0164889 -1.2396 255 255 255
-0.373493 0.071628 -1.23804 255 255 255
-0.376049 0.0290164 -1.23524 255 255 255
-0.379514 0.0890531 -1.23724 255 255 255
-0.383575 0.00662575 -1.23282 255 255 255
-0.384075 0.0412902 -1.23253 255 255 255
-0.384966 0.0613758 -1.23452 255 255 255
-0.385952 0.0610126 -1.23609 255 255 255
-0.386578 0.0374641 -1.23478 255 255 255
-0.389044 0.0586745 -1.23224 255 255 255
-0.38955 0.0367187 -1.23225 255 255 255
-0.39498 0.0931927 -1.23214 255 255 255
0.183201 0.00996955 -1.70827 255 255 255
0.148211 0.295825 -1.66157 255 255 255
0.238617 -0.0369267 -1.83464 255 255 255
0.183081 -0.0433528 -1.85129 255 255 255
0.30604 -0.239857 -2.09145 255 255 255
0.00821614 0.102203 -1.60005 255 255 255
0.0279098 -0.0364512 -1.64175 255 255 255
0.122541 0.406004 -1.86846 255 255 255
0.150969 -0.0213521 -1.92971 255 255 255
0.141767 -0.257811 -2.06638 255 255 255
-0.162475 0.231511 -1.5476 255 255 255
-0.0796666 -0.0109637 -1.87437 255 255 255
-0.237761 0.351626 -1.682 255 255 255
-0.266606 0.0786421 -1.51412 255 255 255
-0.280967 0.173941 -1.81572 255 255 255
-0.313209 0.182817 -1.81517 255 255 255
-0.376635 0.068376 -1.23466 255 255 255
-0.379656 0.0232951 -1.23473 255 255 255
-0.38189 0.090109 -1.23333 255 255 255
-0.382382 0.00745794 -1.23395 255 255 255
-0.382382 0.00745794 -1.23395 255 255 255
-0.383878 0.064332 -1.23755 255 255 255
-0.389265 0.0850846 -1.24112 255 255 255
-0.389506 0.0844542 -1.23736 255 255 255
-0.390841 0.0515531 -1.23484 255 255 255
-0.393004 0.0842364 -1.23188 255 255 255
0.118366 0.073416 -1.55813 255 255 255
0.117194 0.220262 -1.93351 255 255 255
-0.054275 0.0355971 -1.84271 255 255 255
-0.21633 -0.0744457 -1.54935 255 255 255
-0.281256 -0.0379472 -1.50145 255 255 255
-0.257106 0.217807 -1.82984 255 255 255
-0.284239 0.0297158 -1.81206 255 255 255
-0.373906 0.301407 -1.48045 255 255 255
-0.380255 0.30159 -1.47592 255 255 255
-0.0761626 0.362802 -1.58961 255 255 255
-0.21976 0.223119 -1.53292 255 255 255
-0.21364 0.228012 -1.55555 255 255 255
-0.222901 0.217463 -1.87518 255 255 255
-0.374641 0.269714 -1.47955 255 255 255
-0.377378 0.300389 -1.47757 255 255 255
-0.384794 0.308119 -1.47557 255 255 255
-0.0291015 -0.0297613 -1.60926 255 255 255
-0.361197 0.29312 -1.48165 255 255 255
-0.365761 0.294418 -1.4821 255 255 255
-0.38122 0.269078 -1.478 255 255 255
-0.387095 0.303248 -1.47405 255 255 255
-0.387095 0.303248 -1.47405 255 255 255
0.289054 0.225491 -1.76862 255 255 255
0.304534 -0.00923899 -2.0922 255 255 255
-0.332055 -0.0643834 -1.50374 255 255 255
-0.384015 0.297323 -1.4753 255 255 255
0.362311 -0.00484845 -2.00226 255 255 255
0.362311 -0.00484845 -2.00226 255 255 255
-0.0519033 0.354925 -1.5994 255 255 255
0.138553 0.158088 -1.91836 255 255 255
-0.0493542 -0.0461827 -1.87648 255 255 255
0.587882 -0.158117 -2.06249 255 255 255
0.55777 -0.0182112 -2.04323 255 255 255
0.515826 0.152457 -2.03614 255 255 255
0.538641 -0.128642 -2.03445 255 255 255
0.513894 0.0636847 -2.01086 255 255 255
0.490148 0.0300509 -2.02856 255 255 255
0.450383 0.179034 -2.01474 255 255 255
0.450114 -0.199114 -2.00018 255 255 255
0.410016 0.0734503 -2.00503 255 255 255
0.411297 -0.0216064 -2.01209 255 255 255
0.408057 -0.0498594 -1.98794 255 255 255
0.421637 -0.191033 -2.01855 255 255 255
0.403229 0.015387 -2.00673 255 255 255
0.401098 0.0180195 -1.99499 255 255 255
0.390967 -0.0375099 -1.99695 255 255 255
0.377362 0.0602859 -2.00026 255 255 255
0.370964 0.160022 -2.00196 255 255 255
0.379096 -0.00929852 -2.01717 255 255 255
0.36343 -0.0510835 -1.98761 255 255 255
0.357316 0.0092876 -2.02205 255 255 255
0.33707 0.139252 -2.00552 255 255 255
0.302535 0.127782 -1.98382 255 255 255
0.232203 0.27441 -1.66197 255 255 255
0.229047 0.0465576 -1.65018 255 255 255
0.224906 -0.0987356 -1.64247 255 255 255
0.21322 0.0884132 -1.65042 255 255 255
0.213209 0.0349264 -1.6469 255 255 255
0.227468 -0.303936 -1.62733 255 255 255
0.207264 0.131379 -1.65002 255 255 255
0.213512 -0.00516479 -1.64498 255 255 255
0.197392 0.299386 -1.65072 255 255 255
0.223355 -0.301678 -1.62896 255 255 255
0.217777 -0.194902 -1.63257 255 255 255
0.204057 -0.0237923 -1.63359 255 255 255
0.189976 0.251116 -1.64886 255 255 255
0.187506 0.298372 -1.65203 255 255 255
0.195939 0.110792 -1.64384 255 255 255
0.19173 0.0353057 -1.64077 255 255 255
0.202123 -0.216285 -1.62258 255 255 255
0.184635 -0.0811673 -1.63086 255 255 255
0.173528 0.082732 -1.64533 255 255 255
0.146577 0.377898 -1.64243 255 255 255
0.164902 -0.084048 -1.63451 255 255 255
0.13603 0.369002 -1.64252 255 255 255
0.186154 -0.200088 -1.92184 255 255 255
0.153661 -0.181193 -1.61643 255 255 255
0.140799 -0.17379 -1.63445 255 255 255
0.128947 -0.316262 -1.60245 255 255 255
0.0929879 0.241491 -1.63204 255 255 255
0.102159 0.146119 -1.93161 255 255 255
0.0808766 -0.185306 -1.5965 255 255 255
0.0838188 -0.314619 -1.73356 255 255 255
0.0654269 0.303333 -1.93337 255 255 255
0.0701344 0.129295 -1.91889 255 255 255
0.0667484 0.273448 -1.94777 255 255 255
0.065265 -0.317376 -1.58471 255 255 255
0.072873 -0.213769 -1.89517 255 255 255
0.0438082 -0.0464364 -1.59578 255 255 255
0.0452357 0.312787 -1.92603 255 255 255
0.0598442 -0.331226 -1.84878 255 255 255
0.0590248 -0.334516 -1.84996 255 255 255
0.046465 0.122515 -1.90789 255 255 255
0.0295831 0.217963 -1.60912 255 255 255
0.0358061 -0.042704 -1.59565 255 255 255
0.0198247 0.234272 -1.60619 255 255 255
0.02137 0.228393 -1.60354 255 255 255
0.0162824 -0.18953 -1.57525 255 255 255
0.0153106 -0.0896711 -1.89254 255 255 255
-0.0129504 0.108602 -1.90333 255 255 255
-0.011877 -0.0286209 -1.88603 255 255 255
-0.0140166 0.0885624 -1.89072 255 255 255
-0.027797 0.137945 -1.90026 255 255 255
-0.0331734 -0.0538555 -1.87263 255 255 255
-0.0366984 -0.0375565 -1.88122 255 255 255
-0.0426797 -0.0256089 -1.87147 255 255 255
-0.0635459 -0.0384031 -1.87504 255 255 255
-0.0874078 -0.0138506 -1.87198 255 255 255
-0.110123 -0.198739 -1.8466 255 255 255
-0.146737 0.0925817 -1.85274 255 255 255
-0.147623 0.357329 -1.56575 255 255 255
-0.183929 -0.0391274 -1.84007 255 255 255
-0.212523 -0.0854614 -1.8275 255 255 255
-0.21137 0.236644 -1.84152 255 255 255
-0.217748 0.299166 -1.87549 255 255 255
-0.224354 0.0714809 -1.8229 255 255 255
-0.224446 0.0716327 -1.82519 255 255 255
-0.236139 0.0876991 -1.81836 255 255 255
-0.234106 0.0869535 -1.8171 255 255 255
-0.238585 0.0930135 -1.82099 255 255 255
-0.238239 0.086427 -1.82047 255 255 255
-0.2442 0.1246 -1.82408 255 255 255
-0.2442 0.1246 -1.82408 255 255 255
-0.215586 -0.19931 -1.51259 255 255 255
-0.250826 -0.188729 -1.79421 255 255 255
-0.259217 0.124001 -1.8214 255 255 255
-0.26514 0.300463 -1.84101 255 255 255
-0.269887 0.114268 -1.81632 255 255 255
-0.246551 -0.0710811 -1.52027 255 255 255
-0.290108 -0.0151544 -1.8033 255 255 255
-0.290683 -0.0233515 -1.79145 255 255 255
-0.298349 0.0796728 -1.79758 255 255 255
-0.264464 -0.31356 -1.49587 255 255 255
-0.304585 -0.203132 -1.75502 255 255 255
-0.268181 -0.298999 -1.4942 255 255 255
-0.308729 0.100426 -1.80005 255 255 255
-0.310294 -0.0704835 -1.78961 255 255 255
-0.317358 0.153905 -1.8082 255 255 255
-0.313093 0.230463 -1.79719 255 255 255
-0.319645 0.29125 -1.82613 255 255 255
-0.319645 0.29125 -1.82613 255 255 255
-0.28942 0.0831087 -1.51484 255 255 255
-0.31123 0.024921 -1.60231 255 255 255
-0.29603 0.102403 -1.50125 255 255 255
-0.294109 0.237703 -1.51672 255 255 255
-0.303423 -0.189205 -1.48563 255 255 255
-0.299178 -0.0420785 -1.48007 255 255 255
-0.299268 0.367272 -1.52713 255 255 255
-0.318681 0.00977461 -1.60141 255 255 255
-0.301322 0.106356 -1.50426 255 255 255
-0.30294 0.378673 -1.52479 255 255 255
-0.36003 -0.18245 -1.76999 255 255 255
-0.347905 -0.303249 -1.62699 255 255 255
-0.319685 0.230946 -1.50315 255 255 255
-0.317929 0.0841259 -1.4922 255 255 255
-0.322764 -0.0501173 -1.46999 255 255 255
-0.322908 -0.0519102 -1.47541 255 255 255
-0.32266 -0.052255 -1.47662 255 255 255
-0.33175 -0.0362827 -1.47859 255 255 255
-0.34575 -0.190358 -1.47381 255 255 255
-0.355279 -0.282795 -1.48718 255 255 255
-0.344875 0.380032 -1.50364 255 255 255
-0.348864 0.379895 -1.50411 255 255 255
-0.353663 0.246376 -1.49738 255 255 255
-0.349944 0.131767 -1.44788 255 255 255
-0.358169 0.143226 -1.42415 255 255 255
-0.379137 0.213322 -1.48161 255 255 255
-0.372051 0.0236941 -1.35409 255 255 255
-0.413872 0.237511 -1.46993 255 255 255
-0.371028 0.0320671 -1.26171 255 255 255
-0.370255 0.0206003 -1.24591 255 255 255
-0.384478 0.159252 -1.3133 255 255 255
-0.378849 0.0600041 -1.23708 255 255 255
-0.379996 0.0438312 -1.23915 255 255 255
-0.380975 0.058289 -1.2376 255 255 255
-0.381762 0.0713353 -1.2452 255 255 255
0.511998 0.129499 -2.01846 255 255 255
0.502904 0.0360168 -2.0229 255 255 255
0.477643 -0.00686037 -2.02303 255 255 255
0.434261 0.107362 -2.01733 255 255 255
0.373477 0.0137209 -1.99651 255 255 255
0.353616 0.0582549 -1.9929 255 255 255
0.330269 -0.138255 -1.99251 255 255 255
0.222769 0.138755 -1.65559 255 255 255
0.222764 0.0892638 -1.65349 255 255 255
0.223684 -0.092476 -1.64008 255 255 255
0.213499 0.058936 -1.64733 255 255 255
0.213499 0.058936 -1.64733 255 255 255
0.219648 -0.241178 -1.62816 255 255 255
0.206511 0.0437712 -1.64458 255 255 255
0.189461 0.373688 -1.65568 255 255 255
0.223559 -0.319977 -1.6337 255 255 255
0.188958 0.0646313 -1.64278 255 255 255
0.187904 -0.170654 -1.62739 255 255 255
0.18707 -0.318751 -1.61417 255 255 255
0.155519 0.333714 -1.65517 255 255 255
0.145315 0.0938314 -1.6282 255 255 255
0.152834 -0.196869 -1.60546 255 255 255
0.182887 -0.196283 -1.92659 255 255 255
0.167103 0.0692936 -1.93673 255 255 255
0.127574 0.215063 -1.63758 255 255 255
0.153877 0.302409 -1.95488 255 255 255
0.135265 0.280598 -1.95203 255 255 255
0.136054 0.139824 -1.93299 255 255 255
0.0682596 -0.0649872 -1.90321 255 255 255
0.0559444 0.144088 -1.92045 255 255 255
0.058309 -0.317204 -1.7217 255 255 255
0.0359948 -0.316437 -1.71821 255 255 255
-0.0429682 -0.0296006 -1.87197 255 255 255
-0.0572077 -0.0553234 -1.8788 255 255 255
-0.106016 0.0966972 -1.86405 255 255 255
-0.136962 -0.337787 -1.7998 255 255 255
-0.190878 -0.32817 -1.6464 255 255 255
-0.210463 0.0826362 -1.8316 255 255 255
-0.224102 -0.179819 -1.80512 255 255 255
-0.194805 0.238751 -1.54208 255 255 255
-0.231048 -0.25171 -1.82566 255 255 255
-0.200643 -0.322234 -1.50781 255 255 255
-0.252842 0.299927 -1.84427 255 255 255
-0.253192 0.295383 -1.84255 255 255 255
-0.255478 -0.0541529 -1.80971 255 255 255
-0.254332 -0.301939 -1.63873 255 255 255
-0.238322 0.0842023 -1.51988 255 255 255
-0.259966 -0.201122 -1.49687 255 255 255
-0.302714 0.085025 -1.80083 255 255 255
-0.261926 0.10165 -1.51402 255 255 255
-0.304633 -0.0616518 -1.76726 255 255 255
-0.307793 0.156052 -1.80368 255 255 255
-0.274015 -0.196214 -1.49738 255 255 255
-0.320248 -0.18326 -1.78455 255 255 255
-0.315603 0.0811523 -1.79133 255 255 255
-0.325059 -0.084113 -1.79407 255 255 255
-0.325059 -0.084113 -1.79407 255 255 255
-0.303376 -0.331955 -1.61509 255 255 255
-0.282054 0.246427 -1.52798 255 255 255
-0.282054 0.246427 -1.52798 255 255 255
-0.286186 0.240848 -1.52333 255 255 255
-0.293782 -0.0652234 -1.50627 255 255 255
-0.33573 0.272072 -1.8042 255 255 255
-0.310793 0.028116 -1.6117 255 255 255
-0.294246 0.0818815 -1.51713 255 255 255
-0.31684 0.0322515 -1.62347 255 255 255
-0.313995 0.0105206 -1.60739 255 255 255
-0.313749 -0.178513 -1.47582 255 255 255
-0.319796 -0.0470092 -1.47479 255 255 255
-0.363531 0.305382 -1.48881 255 255 255
-0.365509 0.337068 -1.49627 255 255 255
-0.360822 -0.104907 -1.39188 255 255 255
-0.384056 0.273169 -1.48213 255 255 255
-0.385665 0.243208 -1.47157 255 255 255
-0.415558 0.222483 -1.46981 255 255 255
-0.384407 -0.0817091 -1.28235 255 255 255
-0.421547 0.239114 -1.4708 255 255 255
-0.383554 0.0442476 -1.24368 255 255 255
-0.727995 -0.301536 -2.31199 255 255 255
0.500824 0.223427 -2.02333 255 255 255
0.486345 -0.177345 -2.01486 255 255 255
0.45411 0.199835 -2.01684 255 255 255
0.367164 0.180214 -2.00162 255 255 255
0.300137 -0.123807 -1.9749 255 255 255
0.223422 0.171282 -1.66091 255 255 255
0.219303 0.194504 -1.66022 255 255 255
0.210989 0.188754 -1.65439 255 255 255
0.223401 -0.290614 -1.62824 255 255 255
0.1858 0.308619 -1.65068 255 255 255
0.173897 0.33379 -1.64928 255 255 255
0.181032 0.0745706 -1.6403 255 255 255
0.148812 -0.063187 -1.62037 255 255 255
0.135485 -0.31513 -1.60117 255 255 255
0.110636 0.286599 -1.93271 255 255 255
0.0576619 0.28056 -1.94397 255 255 255
0.0599153 -0.230763 -1.88519 255 255 255
0.0397162 0.100279 -1.91203 255 255 255
0.0273106 0.122299 -1.91939 255 255 255
-0.0907445 -0.0144109 -1.86898 255 255 255
-0.237642 0.29449 -1.85525 255 255 255
-0.303854 -0.051131 -1.79017 255 255 255
-0.265302 -0.0383509 -1.50598 255 255 255
-0.320311 -0.0865629 -1.78652 255 255 255
-0.302512 -0.187804 -1.48692 255 255 255
-0.354547 0.322587 -1.5048 255 255 255
-0.3509 0.161726 -1.43448 255 255 255
-0.357806 -0.124257 -1.40693 255 255 255
-0.372708 -0.021349 -1.34926 255 255 255
0.593241 -0.156854 -2.04171 255 255 255
0.454658 -0.2292 -1.99932 255 255 255
0.346194 -0.184951 -1.98161 255 255 255
0.34554 -0.185345 -1.98291 255 255 255
0.223167 0.050989 -1.64221 255 255 255
0.22735 -0.0604721 -1.64354 255 255 255
0.216106 0.160096 -1.65512 255 255 255
0.209048 0.296701 -1.6567 255 255 255
0.189652 0.26218 -1.661 255 255 255
0.180369 -0.0548574 -1.63219 255 255 255
0.124124 0.375173 -1.6422 255 255 255
0.118092 -0.0990765 -1.90028 255 255 255
0.114762 -0.0772531 -1.8997 255 255 255
0.08575 0.0627532 -1.63481 255 255 255
0.0582667 0.0916676 -1.90899 255 255 255
0.0549939 0.0951571 -1.90585 255 255 255
0.054568 -0.0832044 -1.89515 255 255 255
0.0127813 -0.0965523 -1.88553 255 255 255
-0.0296783 0.232723 -1.59078 255 255 255
-0.130939 -0.0971952 -1.85475 255 255 255
-0.21827 0.279988 -1.86236 255 255 255
-0.234754 0.0930059 -1.82065 255 255 255
-0.259973 0.0960649 -1.81541 255 255 255
-0.269281 -0.00980763 -1.80444 255 255 255
-0.247918 -0.192215 -1.50019 255 255 255
-0.305733 0.078364 -1.79697 255 255 255
-0.312727 -0.208805 -1.75971 255 255 255
-0.354068 -0.16162 -1.65575 255 255 255
-0.323486 0.100681 -1.48252 255 255 255
-0.352722 -0.187017 -1.47085 255 255 255
-0.343014 0.00678264 -1.45558 255 255 255
-0.343014 0.00678264 -1.45558 255 255 255
-0.369212 -0.00849748 -1.34615 255 255 255
-0.369212 -0.00849748 -1.34615 255 255 255
-0.372477 -0.0356454 -1.34238 255 255 255
-0.4162 0.3097 -1.47137 255 255 255
-0.377766 -0.00600411 -1.24624 255 255 255
-0.378494 0.030377 -1.24086 255 255 255
-0.427419 0.3171 -1.46401 255 255 255
-0.430838 0.267602 -1.46644 255 255 255
0.551615 -0.0136125 -2.04086 255 255 255
0.44997 0.208287 -2.02655 255 255 255
0.0685834 0.302202 -1.92539 255 255 255
0.0526651 -0.197446 -1.88123 255 255 255
-0.165376 -0.226591 -1.83486 255 255 255
-0.304782 -0.0578301 -1.78989 255 255 255
-0.36054 -0.109026 -1.39153 255 255 255
-0.363972 -0.0918584 -1.37841 255 255 255
-0.36663 -0.0262971 -1.35857 255 255 255
-0.367966 0.070032 -1.36885 255 255 255
-0.370565 -0.103075 -1.34839 255 255 255
-0.369397 0.0155016 -1.34672 255 255 255
-0.370653 0.059565 -1.35072 255 255 255
-0.372815 -0.0862068 -1.33031 255 255 255
0.532193 0.197392 -2.03585 255 255 255
0.53355 -0.169101 -2.02285 255 255 255
0.494635 0.124698 -2.02727 255 255 255
0.495134 0.000563952 -2.02317 255 255 255
0.495724 -0.0456857 -2.02898 255 255 255
0.493047 -0.203284 -2.01654 255 255 255
0.172565 -0.272151 -1.57427 255 255 255
0.154454 -0.172031 -1.61892 255 255 255
-0.063272 0.107238 -1.57974 255 255 255
-0.21188 0.39053 -1.56689 255 255 255
-0.356751 0.186218 -1.42427 255 255 255
-0.356751 0.186218 -1.42427 255 255 255
-0.379308 0.254033 -1.47349 255 255 255
-0.382987 -0.119648 -1.29673 255 255 255
-0.438986 0.354126 -1.45251 255 255 255
0.663005 -0.00859543 -2.08188 255 255 255
0.663005 -0.00859543 -2.08188 255 255 255
0.542004 0.0950937 -2.05899 255 255 255
0.296158 -0.0513673 -1.97555 255 255 255
0.182012 0.172957 -1.64741 255 255 255
0.171373 0.366233 -1.65125 255 255 255
0.0994617 -0.0378909 -1.62593 255 255 255
0.550833 0.0781559 -2.04369 255 255 255
0.48517 0.201159 -2.01921 255 255 255
0.459322 0.130237 -2.02054 255 255 255
0.450545 0.0931151 -2.0109 255 255 255
0.437429 0.118978 -2.03151 255 255 255
-0.285381 -0.233605 -1.79093 255 255 255
-0.327415 -0.163992 -1.48281 255 255 255
-0.343246 -0.289572 -1.47169 255 255 255
0.0872378 -0.202346 -1.90566 255 255 255
-0.0240401 -0.041024 -1.87837 255 255 255
0.12614 -0.15238 -1.65474 255 255 255
0.212213 -0.0730688 -1.89147 255 255 255
0.032554 0.0957955 -1.58793 255 255 255
0.245548 -0.0731149 -2.01658 255 255 255
0.18042 0.147954 -1.90968 255 255 255
0.21083 0.292298 -1.96501 255 255 255
-0.00782642 -0.0320184 -1.57527 255 255 255
0.18437 0.00704874 -1.92726 255 255 255
-0.015863 -0.0302871 -1.56921 255 255 255
-0.0293422 0.208877 -1.58368 255 255 255
-0.0331319 0.219727 -1.57827 255 255 255
-0.0449266 0.223153 -1.59306 255 255 255
-0.0477167 0.223623 -1.59139 255 255 255
-0.0472908 0.223908 -1.59158 255 255 255
-0.0702767 0.087924 -1.55888 255 255 255
-0.0660558 0.214658 -1.5813 255 255 255
0.0678199 -0.000581494 -1.91761 255 255 255
0.0654723 -0.000922078 -1.91979 255 255 255
0.0710736 0.159529 -1.93258 255 255 255
-0.075565 0.214948 -1.57976 255 255 255
-0.0910559 -0.0573023 -1.57292 255 255 255
0.03547 -0.0914543 -1.88591 255 255 255
0.0740865 0.316218 -1.95965 255 255 255
-0.0848406 0.208957 -1.57791 255 255 255
0.0305173 -0.0761169 -1.88763 255 255 255
0.0305173 -0.0761169 -1.88763 255 255 255
0.0365239 0.00458386 -1.90304 255 255 255
0.0404019 0.20619 -1.91062 255 255 255
-0.0958878 0.220765 -1.56674 255 255 255
0.0372761 0.189024 -1.91153 255 255 255
-0.0966669 0.221221 -1.56824 255 255 255
-0.0970929 0.210906 -1.57201 255 255 255
0.0376411 0.215999 -1.9176 255 255 255
0.0264201 0.00395074 -1.90637 255 255 255
-0.11579 -0.038253 -1.54727 255 255 255
-0.10375 0.218832 -1.56287 255 255 255
0.0432557 0.321542 -1.95003 255 255 255
0.0257631 0.202224 -1.91046 255 255 255
0.039685 0.313361 -1.94819 255 255 255
0.0381029 0.32347 -1.95035 255 255 255
-0.109035 0.215161 -1.56437 255 255 255
0.0347238 0.323868 -1.948 255 255 255
-0.111222 0.219466 -1.56188 255 255 255
-0.124965 0.0880771 -1.54308 255 255 255
0.00825803 0.129091 -1.9138 255 255 255
-0.11748 0.217817 -1.57215 255 255 255
-0.046012 0.33686 -1.76225 255 255 255
-0.0257573 -0.0463729 -1.87304 255 255 255
-0.0105588 0.205966 -1.89304 255 255 255
-0.0134325 0.141143 -1.89537 255 255 255
-0.0109017 0.164776 -1.90353 255 255 255
-0.122239 0.209104 -1.57537 255 255 255
-0.146159 -0.0556249 -1.53503 255 255 255
-0.144122 0.0914987 -1.54282 255 255 255
-0.134351 0.212005 -1.55986 255 255 255
-0.13064 0.206779 -1.56847 255 255 255
-0.139036 0.209749 -1.56312 255 255 255
-0.140418 0.207234 -1.56538 255 255 255
-0.153464 0.0831404 -1.54313 255 255 255
-0.153682 0.0831557 -1.54284 255 255 255
-0.143131 0.206996 -1.56498 255 255 255
-0.164001 -0.0586153 -1.5297 255 255 255
-0.159818 0.0837813 -1.53816 255 255 255
-0.159556 0.096687 -1.53984 255 255 255
-0.148341 0.209341 -1.56065 255 255 255
-0.0638852 -0.0342147 -1.87411 255 255 255
-0.162838 0.08423 -1.53846 255 255 255
-0.165222 0.084012 -1.53625 255 255 255
-0.154846 0.212362 -1.55434 255 255 255
-0.0701644 -0.0292703 -1.87611 255 255 255
-0.0730945 -0.0146179 -1.87789 255 255 255
-0.163139 0.224749 -1.54726 255 255 255
-0.0785102 -0.0182203 -1.87353 255 255 255
-0.0804835 0.00162473 -1.87189 255 255 255
-0.165658 0.22017 -1.54669 255 255 255
-0.0861191 -0.0512978 -1.86561 255 255 255
-0.162649 0.218247 -1.56056 255 255 255
-0.164973 0.221984 -1.56015 255 255 255
-0.176346 0.0782567 -1.54213 255 255 255
-0.09689 -0.0586047 -1.86544 255 255 255
-0.175363 0.215191 -1.54114 255 255 255
-0.184423 0.0940309 -1.53068 255 255 255
-0.184465 0.0792702 -1.5339 255 255 255
-0.177377 0.216098 -1.54595 255 255 255
-0.186309 0.0805643 -1.53393 255 255 255
-0.109552 -0.042361 -1.86141 255 255 255
-0.194066 0.084569 -1.53182 255 255 255
-0.120195 -0.0453433 -1.85742 255 255 255
-0.204105 -0.0359493 -1.52286 255 255 255
-0.209495 -0.0603953 -1.51772 255 255 255
-0.191896 0.23227 -1.54057 255 255 255
-0.203167 0.0816884 -1.52726 255 255 255
-0.194472 0.23249 -1.5387 255 255 255
-0.194926 0.213624 -1.54189 255 255 255
-0.205919 0.096409 -1.52391 255 255 255
-0.197678 0.213616 -1.53609 255 255 255
-0.209455 0.0927435 -1.5232 255 255 255
-0.209455 0.0927435 -1.5232 255 255 255
-0.20835 0.106452 -1.5267 255 255 255
-0.216867 -0.0351022 -1.52012 255 255 255
-0.21228 0.0942689 -1.52199 255 255 255
-0.214649 0.0888453 -1.52149 255 255 255
-0.204622 0.218372 -1.53502 255 255 255
-0.217266 0.0839681 -1.52158 255 255 255
-0.217435 0.0847315 -1.52168 255 255 255
-0.217477 0.100392 -1.52157 255 255 255
-0.20783 0.242002 -1.53921 255 255 255
-0.228457 -0.0452411 -1.51307 255 255 255
-0.222277 0.089309 -1.51853 255 255 255
-0.155126 0.00575427 -1.86587 255 255 255
-0.234201 -0.0534222 -1.50932 255 255 255
-0.168074 -0.0433221 -1.84737 255 255 255
-0.226833 0.0943681 -1.52188 255 255 255
-0.235344 -0.0522461 -1.50951 255 255 255
-0.229022 0.0870352 -1.51794 255 255 255
-0.162401 0.18748 -1.8649 255 255 255
-0.232966 0.0955019 -1.51629 255 255 255
-0.233109 0.101261 -1.51795 255 255 255
-0.23373 0.0952352 -1.516 255 255 255
-0.244332 -0.0353347 -1.51219 255 255 255
-0.237207 0.0865025 -1.52228 255 255 255
-0.2358 0.0854637 -1.52598 255 255 255
-0.191795 -0.0381153 -1.83967 255 255 255
-0.241579 0.0861551 -1.51676 255 255 255
-0.243008 0.0796944 -1.52596 255 255 255
-0.246424 0.0980154 -1.51167 255 255 255
-0.236316 0.210381 -1.53054 255 255 255
-0.244904 0.0887136 -1.52277 255 255 255
-0.241782 0.23179 -1.52628 255 255 255
-0.251729 0.0833491 -1.51281 255 255 255
-0.20821 -0.0548789 -1.83402 255 255 255
-0.20821 -0.0548789 -1.83402 255 255 255
-0.257658 -0.0489499 -1.50652 255 255 255
-0.204076 0.00532011 -1.85139 255 255 255
-0.24013 0.230997 -1.54139 255 255 255
-0.206755 -0.0100328 -1.84204 255 255 255
-0.204805 0.000135689 -1.8552 255 255 255
-0.204805 0.000135689 -1.8552 255 255 255
-0.195559 0.168424 -1.86363 255 255 255
-0.25366 0.0893976 -1.51131 255 255 255
-0.26254 -0.0477127 -1.50061 255 255 255
-0.253323 0.0870678 -1.5216 255 255 255
-0.253536 0.0870092 -1.51997 255 255 255
-0.200717 0.188794 -1.85669 255 255 255
-0.212833 0.00403654 -1.845 255 255 255
-0.264677 -0.0342891 -1.50436 255 255 255
-0.261153 0.0952047 -1.50782 255 255 255
-0.211142 0.16985 -1.85066 255 255 255
-0.267412 -0.029941 -1.50857 255 255 255
-0.263132 0.0819842 -1.50839 255 255 255
-0.271215 -0.0399775 -1.49634 255 255 255
-0.253566 0.212686 -1.53142 255 255 255
-0.257299 0.211668 -1.52927 255 255 255
-0.266723 0.100462 -1.50725 255 255 255
-0.267883 0.0787768 -1.51044 255 255 255
-0.274927 -0.0383999 -1.50187 255 255 255
-0.274927 -0.0383999 -1.50187 255 255 255
-0.231351 0.00624626 -1.84207 255 255 255
-0.22507 0.211763 -1.83475 255 255 255
-0.264192 0.216087 -1.52538 255 255 255
-0.264192 0.216087 -1.52538 255 255 255
-0.264074 0.239905 -1.52436 255 255 255
-0.274955 0.0958907 -1.5035 255 255 255
-0.250297 -0.0248936 -1.80741 255 255 255
-0.2523 0.00272608 -1.80961 255 255 255
-0.253567 0.00784544 -1.80946 255 255 255
-0.254383 0.000247258 -1.80343 255 255 255
-0.281522 0.0919629 -1.50091 255 255 255
-0.283874 0.0890133 -1.50152 255 255 255
-0.260994 0.00453032 -1.81009 255 255 255
-0.262478 0.0141626 -1.80688 255 255 255
-0.266333 -0.046086 -1.80101 255 255 255
-0.266333 -0.046086 -1.80101 255 255 255
-0.278408 0.214817 -1.52291 255 255 255
-0.288734 0.0769633 -1.5075 255 255 255
-0.288185 0.0959791 -1.49911 255 255 255
-0.25763 0.161698 -1.81941 255 255 255
-0.268386 -0.00704656 -1.80189 255 255 255
-0.258896 0.161097 -1.81844 255 255 255
-0.256741 0.20087 -1.82543 255 255 255
-0.289302 0.0802735 -1.50701 255 255 255
-0.279594 0.215034 -1.52091 255 255 255
-0.27133 -0.0298659 -1.79964 255 255 255
-0.27133 -0.0298659 -1.79964 255 255 255
-0.282162 0.20919 -1.52732 255 255 255
-0.26254 0.157701 -1.81895 255 255 255
-0.291961 0.0835098 -1.50593 255 255 255
-0.284101 0.236675 -1.51788 255 255 255
-0.284101 0.236675 -1.51788 255 255 255
-0.273934 0.00428048 -1.80382 255 255 255
-0.278587 -0.0226386 -1.7995 255 255 255
-0.295984 0.0966699 -1.49826 255 255 255
-0.295149 0.0994033 -1.49918 255 255 255
-0.287519 0.231724 -1.51633 255 255 255
-0.286695 0.209903 -1.54317 255 255 255
-0.305432 -0.0356358 -1.49468 255 255 255
-0.301089 0.0855176 -1.49919 255 255 255
-0.301697 0.0970483 -1.49708 255 255 255
-0.31075 -0.0298691 -1.48953 255 255 255
-0.281852 0.178889 -1.81344 255 255 255
-0.311604 -0.0206291 -1.48706 255 255 255
-0.312186 -0.0216758 -1.48393 255 255 255
-0.305878 0.0146635 -1.60194 255 255 255
-0.299625 0.215811 -1.51596 255 255 255
-0.308015 0.0958822 -1.48876 255 255 255
-0.299124 0.236258 -1.51683 255 255 255
-0.306887 0.019417 -1.6059 255 255 255
-0.308739 0.099551 -1.48988 255 255 255
-0.309674 0.0812559 -1.49127 255 255 255
-0.310235 0.0917733 -1.48854 255 255 255
-0.302343 0.228936 -1.51388 255 255 255
-0.310749 0.00149717 -1.61139 255 255 255
-0.310749 0.00149717 -1.61139 255 255 255
-0.310705 0.00978712 -1.60146 255 255 255
-0.30378 0.228103 -1.51286 255 255 255
-0.311207 0.101759 -1.49078 255 255 255
-0.311207 0.101759 -1.49078 255 255 255
-0.311305 0.104829 -1.49161 255 255 255
-0.313113 0.0702029 -1.49748 255 255 255
-0.313358 0.112969 -1.49555 255 255 255
-0.312889 0.104236 -1.4896 255 255 255
-0.31528 0.0776372 -1.49384 255 255 255
-0.315445 0.0812316 -1.49232 255 255 255
-0.321509 -0.0307528 -1.47429 255 255 255
-0.315196 0.0765452 -1.48917 255 255 255
-0.315673 0.0103566 -1.60367 255 255 255
-0.314498 0.0762841 -1.49844 255 255 255
-0.31557 0.0201681 -1.59553 255 255 255
-0.308059 0.233111 -1.50619 255 255 255
-0.314048 -0.0474729 -1.78504 255 255 255
-0.314048 -0.0474729 -1.78504 255 255 255
-0.308807 0.241877 -1.50838 255 255 255
-0.310672 0.2158 -1.5084 255 255 255
-0.324091 -0.0186575 -1.4853 255 255 255
-0.316964 0.0990299 -1.48668 255 255 255
-0.320784 0.0191959 -1.59935 255 255 255
-0.319732 -0.0461014 -1.7857 255 255 255
-0.319961 -0.0481411 -1.7828 255 255 255
-0.321958 0.0744294 -1.49312 255 255 255
-0.321471 0.0936199 -1.4815 255 255 255
-0.307818 0.196731 -1.81124 255 255 255
-0.322574 0.0264375 -1.59039 255 255 255
-0.323497 -0.0465558 -1.78459 255 255 255
-0.325916 0.0717078 -1.49714 255 255 255
-0.326177 0.101392 -1.47953 255 255 255
-0.328211 0.0186932 -1.59414 255 255 255
-0.319859 0.217893 -1.49977 255 255 255
-0.320327 0.208401 -1.50802 255 255 255
-0.320479 0.213088 -1.50153 255 255 255
-0.320814 0.205874 -1.51041 255 255 255
-0.329993 0.0316968 -1.59151 255 255 255
-0.327705 0.0999139 -1.47933 255 255 255
-0.320028 0.235498 -1.49986 255 255 255
-0.331769 0.0164443 -1.59051 255 255 255
-0.318424 0.206525 -1.80813 255 255 255
-0.318424 0.206525 -1.80813 255 255 255
-0.323526 0.202132 -1.51456 255 255 255
-0.330371 0.0739969 -1.47723 255 255 255
-0.331529 0.0699304 -1.47165 255 255 255
-0.330466 0.0696994 -1.47765 255 255 255
-0.322532 0.201488 -1.8054 255 255 255
-0.330278 0.0801162 -1.47729 255 255 255
-0.332226 0.0863146 -1.47445 255 255 255
-0.338564 -0.024974 -1.46743 255 255 255
-0.338564 -0.024974 -1.46743 255 255 255
-0.324608 0.220575 -1.49537 255 255 255
-0.334473 0.0900551 -1.47456 255 255 255
-0.327088 0.223083 -1.4953 255 255 255
-0.337276 0.0613009 -1.47222 255 255 255
-0.339811 0.0160479 -1.46884 255 255 255
-0.327943 0.220792 -1.49409 255 255 255
-0.342636 0.00738177 -1.4517 255 255 255
-0.343612 -0.00911794 -1.45144 255 255 255
-0.334056 0.126074 -1.48687 255 255 255
-0.337276 0.12369 -1.47734 255 255 255
-0.332261 0.216038 -1.49982 255 255 255
-0.333297 0.219406 -1.49915 255 255 255
-0.333485 0.224007 -1.50021 255 255 255
-0.348083 -0.00254081 -1.43462 255 255 255
-0.348083 -0.00254081 -1.43462 255 255 255
-0.34575 0.0418841 -1.43618 255 255 255
-0.33936 0.166368 -1.48127 255 255 255
-0.348376 0.029067 -1.43502 255 255 255
-0.338509 0.221851 -1.4992 255 255 255
-0.350979 0.0176464 -1.41915 255 255 255
-0.341734 0.203902 -1.48759 255 255 255
-0.347888 0.0969163 -1.43988 255 255 255
-0.343451 0.177797 -1.46664 255 255 255
-0.343122 0.192371 -1.4686 255 255 255
-0.343072 0.221338 -1.49691 255 255 255
-0.346585 0.146057 -1.4451 255 255 255
-0.34774 0.138099 -1.44401 255 255 255
-0.350151 0.0955126 -1.4238 255 255 255
-0.35128 0.0821621 -1.42233 255 255 255
-0.351216 0.0915228 -1.42295 255 255 255
-0.354735 0.0220696 -1.40251 255 255 255
-0.354735 0.0220696 -1.40251 255 255 255
-0.353987 0.0429654 -1.40371 255 255 255
-0.353995 0.0423233 -1.40324 255 255 255
-0.353995 0.0423233 -1.40324 255 255 255
-0.354707 0.0612794 -1.40416 255 255 255
-0.353882 0.0783613 -1.4055 255 255 255
-0.354732 0.0649122 -1.40445 255 255 255
-0.350028 0.171174 -1.43272 255 255 255
-0.355092 0.0731513 -1.40492 255 255 255
-0.355092 0.0731513 -1.40492 255 255 255
-0.35832 0.0138607 -1.3861 255 255 255
-0.35352 0.0913819 -1.41358 255 255 255
-0.35476 0.0920127 -1.40649 255 255 255
-0.358158 0.020691 -1.38617 255 255 255
-0.350954 0.178148 -1.43367 255 255 255
-0.350692 0.185819 -1.43483 255 255 255
-0.356714 0.0343008 -1.39019 255 255 255
-0.355212 0.106288 -1.40749 255 255 255
-0.355787 0.101272 -1.407 255 255 255
-0.355787 0.101272 -1.407 255 255 255
-0.358188 0.053707 -1.38715 255 255 255
-0.357809 0.0652071 -1.38804 255 255 255
-0.358905 0.047205 -1.38705 255 255 255
-0.357529 0.0717276 -1.38843 255 255 255
-0.355397 0.123788 -1.40928 255 255 255
-0.355028 0.138259 -1.41097 255 255 255
-0.355088 0.143345 -1.41141 255 255 255
-0.357636 0.0929016 -1.38988 255 255 255
-0.360932 0.0282273 -1.37053 255 255 255
-0.358602 0.0862454 -1.38917 255 255 255
-0.358602 0.0862454 -1.38917 255 255 255
-0.357791 0.11145 -1.39147 255 255 255
-0.361827 0.0296097 -1.37014 255 255 255
-0.363814 0.0305381 -1.35418 255 255 255
-0.364569 0.0422449 -1.35423 255 255 255
-0.364317 0.0549869 -1.35486 255 255 255
-0.365435 0.036403 -1.35393 255 255 255
-0.36507 0.0463096 -1.35418 255 255 255
-0.362938 0.112762 -1.37513 255 255 255
-0.363817 0.0588166 -1.3598 255 255 255
-0.365857 0.0613774 -1.35453 255 255 255
-0.364475 0.0867083 -1.35673 255 255 255
-0.364802 0.095197 -1.35705 255 255 255
-0.367507 0.0294732 -1.33789 255 255 255
-0.362877 0.158626 -1.38086 255 255 255
-0.364852 0.102993 -1.35774 255 255 255
-0.366006 0.084808 -1.35597 255 255 255
-0.364805 0.110398 -1.35857 255 255 255
-0.36896 0.026518 -1.33813 255 255 255
-0.368307 0.0370799 -1.33812 255 255 255
-0.368516 0.0379387 -1.33797 255 255 255
-0.365336 0.114115 -1.35868 255 255 255
-0.365336 0.114115 -1.35868 255 255 255
-0.365993 0.103745 -1.35768 255 255 255
-0.364628 0.131986 -1.36121 255 255 255
-0.369608 0.0320281 -1.33747 255 255 255
-0.369221 0.0675782 -1.33872 255 255 255
-0.36971 0.0678388 -1.33909 255 255 255
-0.370177 0.069469 -1.23685 255 255 255
-0.370739 0.0678496 -1.23672 255 255 255
-0.370512 0.082352 -1.2369 255 255 255
-0.371823 0.0881303 -1.23591 255 255 255
-0.371349 0.0942891 -1.23713 255 255 255
-0.374922 0.0826136 -1.23582 255 255 255
-0.375807 0.080954 -1.23576 255 255 255
-0.376523 0.0815173 -1.2355 255 255 255
-0.37785 0.0706957 -1.23536 255 255 255
-0.377114 0.0738152 -1.23532 255 255 255
-0.37799 0.0895152 -1.23519 255 255 255
-0.381031 0.0770584 -1.2341 255 255 255
-0.380144 0.0782911 -1.2347 255 255 255
-0.379929 0.0936802 -1.23523 255 255 255
-0.379789 0.0977214 -1.23565 255 255 255
-0.382646 0.0731187 -1.23443 255 255 255
-0.382043 0.0742279 -1.23436 255 255 255
-0.382957 0.0819553 -1.23392 255 255 255
-0.383897 0.0751939 -1.23384 255 255 255
-0.384288 0.0736682 -1.23508 255 255 255
-0.382749 0.0971591 -1.23496 255 255 255
-0.383556 0.0970566 -1.23481 255 255 255
-0.386418 0.077657 -1.23307 255 255 255
-0.387151 0.0745967 -1.23305 255 255 255
-0.387618 0.0702379 -1.23342 255 255 255
-0.387634 0.0708582 -1.23335 255 255 255
-0.388431 0.0718748 -1.23324 255 255 255
-0.388553 0.0826762 -1.23294 255 255 255
-0.390146 0.0721323 -1.23362 255 255 255
-0.390415 0.0712383 -1.23283 255 255 255
-0.389396 0.0821309 -1.2339 255 255 255
-0.390566 0.076487 -1.23242 255 255 255
-0.390137 0.0808905 -1.23237 255 255 255
-0.392861 0.0708645 -1.23185 255 255 255
0.224412 -0.0845493 -1.91891 255 255 255
0.0336924 0.0952754 -1.59503 255 255 255
0.0285647 0.0913159 -1.58626 255 255 255
0.0222669 0.0948901 -1.57968 255 255 255
0.0161199 0.0999635 -1.5717 255 255 255
0.210284 0.137505 -1.91063 255 255 255
0.190026 -0.0213538 -1.90185 255 255 255
0.0216831 0.0976503 -1.60705 255 255 255
0.0182908 0.22816 -1.60705 255 255 255
